# .PCD v0.7 - Point Cloud Data file format
VERSION 0.7
FIELDS x y z intensities index
SIZE 4 4 4 4 4
TYPE F F F F F
COUNT 1 1 1 1 1
WIDTH 1253
HEIGHT 1
VIEWPOINT 0 0 0 1 0 0 0
POINTS 1253
DATA ascii
2.1498649 16.122326 -24.40374 10 222
2.0629029 15.667871 -23.379866 9 223
2.2361474 16.404003 -24.210833 10 224
1.9955182 15.255523 -22.156467 9 225
2.3219287 16.683395 -24.014414 10 226
2.3649342 16.823606 -23.916943 10 227
2.4090571 16.968832 -23.82674 9 228
2.4505761 17.102335 -23.719349 9 229
2.4935257 17.24226 -23.621256 10 230
2.5347519 17.374483 -23.512207 10 231
2.4396136 16.900911 -22.560726 10 232
2.6223044 17.661589 -23.325626 9 233
2.6651025 17.800749 -23.225952 8 234
2.7077816 17.939358 -23.125381 9 235
2.733079 18.001606 -22.92355 10 236
2.8122644 18.300253 -23.033216 10 237
2.8993332 18.632433 -23.18095 10 238
2.8294713 18.279936 -22.448376 9 239
2.8167903 18.178417 -22.047285 9 240
2.8552239 18.299595 -21.930698 9 241
3.0738275 19.199621 -22.773222 10 242
-1.2486662 0.51477557 0.23229477 11 243
3.156908 19.465004 -22.545748 9 244
3.196744 19.590366 -22.423218 9 245
3.2371454 19.71817 -22.303682 9 246
3.274369 19.832409 -22.168444 9 247
3.3121288 19.948997 -22.036291 9 248
-1.2484837 0.51535434 0.23282428 11 249
-1.2484536 0.51544899 0.23291464 11 250
3.4350476 20.339842 -21.686935 9 251
3.4775503 20.476547 -21.577274 9 252
3.5155716 20.594313 -21.44685 9 253
3.5537941 20.712952 -21.31752 9 254
3.5914228 20.829117 -21.185698 9 255
-7.0623369 -17.518715 -19.805414 8 0
-1.2466373 0.48485667 0.23293817 10 1
-1.2466141 0.48495248 0.23284703 11 2
-7.2814512 -18.103949 -21.226006 9 3
-7.2483439 -17.970491 -21.333385 8 4
-7.2888203 -18.062943 -21.707773 9 5
-1.2464956 0.48543912 0.23240027 10 7
-1.2464713 0.48553798 0.23231272 10 8
-7.2635775 -17.854548 -22.552261 10 9
-7.2458167 -17.766903 -22.72467 10 10
-7.2142816 -17.637255 -22.84503 10 11
-7.1800485 -17.499413 -22.954975 10 12
-7.1205931 -17.285275 -22.96525 10 13
-7.0543938 -17.051077 -22.946447 10 14
-6.9248304 -16.626312 -22.669353 10 15
-6.8901982 -16.488205 -22.770967 10 16
-6.8592143 -16.361067 -22.887491 10 17
-6.8251414 -16.224646 -22.991379 10 18
-6.6005116 -15.518609 -22.293581 9 19
-6.5648632 -15.37869 -22.382179 7 20
-6.5313978 -15.245301 -22.47991 8 21
-6.4986782 -15.114134 -22.580843 5 22
-6.4648399 -14.979643 -22.67692 9 23
-6.4326553 -14.850046 -22.780298 9 24
-6.3998108 -14.718484 -22.880857 9 25
-6.6584268 -15.444864 -24.302652 11 26
-6.6349425 -15.338764 -24.460602 11 27
-6.5981374 -15.193459 -24.558117 11 28
-6.5602589 -15.045018 -24.650572 11 29
-6.5252919 -14.905087 -24.756681 11 30
-6.4861727 -14.753053 -24.843115 11 31
-6.4608011 -14.640931 -24.995829 11 32
-6.4268765 -14.503885 -25.107979 11 33
-6.3871493 -14.350038 -25.191814 11 34
-6.3515191 -14.208014 -25.295912 9 35
-6.0848393 -13.402703 -24.232265 9 36
-6.0492597 -13.26258 -24.324083 9 37
-6.0147424 -13.125472 -24.421497 9 38
-5.9787841 -12.984228 -24.511631 9 39
-5.9426432 -12.842449 -24.600904 9 40
-5.905508 -12.697845 -24.684975 9 41
-5.8694148 -12.556175 -24.774687 9 42
-5.8383279 -12.428566 -24.891947 9 43
-5.7875581 -12.245655 -24.901115 8 44
-5.4838066 -11.355935 -23.492668 8 45
-5.8502059 -12.337914 -25.844114 9 46
-5.8117275 -12.188314 -25.929531 9 47
-5.772306 -12.036088 -26.009594 10 48
-5.7353792 -11.89074 -26.104301 9 49
-5.6944814 -11.734426 -26.175821 9 50
-5.7336125 -11.797226 -26.727852 10 51
-5.6754508 -11.593055 -26.699959 10 52
-5.5577769 -11.227533 -26.30337 10 53
-5.5182662 -11.07519 -26.381992 10 54
-5.5486422 -11.111239 -26.901323 10 55
-5.522716 -10.994569 -27.072388 10 56
-5.341301 -10.461798 -26.241119 9 57
-5.4405551 -10.679489 -27.22364 10 58
-5.239821 -10.098698 -26.241522 9 59
-4.9361491 -9.249999 -24.541748 8 60
-4.8983178 -9.1060266 -24.603481 8 61
-4.8596859 -8.9599581 -24.659712 8 62
-4.8219318 -8.8161898 -24.721958 8 63
-4.784698 -8.6737585 -24.787952 8 64
-5.0051365 -9.1950951 -26.699356 9 65
-4.9699078 -9.0542822 -26.805071 9 66
-5.0558853 -9.2222519 -27.803505 9 67
-5.0118475 -9.0570583 -27.858198 9 68
-4.9698653 -8.8970718 -27.928251 9 69
-4.9264951 -8.7335682 -27.987944 9 70
-4.8832951 -8.570487 -28.048973 10 71
-4.8399572 -8.4070539 -28.108995 10 72
-4.7958922 -8.2418194 -28.163286 10 73
-4.7502475 -8.0727339 -28.204712 10 74
-4.7071147 -7.9097991 -28.266405 10 75
-4.6592827 -7.7355099 -28.289083 10 76
-4.6150746 -7.5700164 -28.341572 10 77
-4.5712996 -7.4055486 -28.397799 10 78
-4.5260234 -7.2375226 -28.441071 10 79
-4.4801116 -7.0680394 -28.478502 9 80
-4.4365149 -6.9039726 -28.536432 10 81
-4.3930364 -6.7401309 -28.595764 10 82
-4.2589154 -6.369854 -27.812416 10 83
-4.2396359 -6.2623997 -28.087612 9 84
-4.1956792 -6.0987501 -28.133343 9 85
-4.1518559 -5.9353824 -28.180475 9 86
-4.1656222 -5.8980026 -28.799992 10 87
-3.8948538 -5.2420449 -26.563656 9 88
-4.042088 -5.4915323 -28.54631 9 89
-3.8112741 -4.9321742 -26.641359 9 90
-3.7691054 -4.7764249 -26.676342 9 91
-3.9077873 -4.9932947 -28.67345 9 92
-3.6858215 -4.4670534 -26.758036 9 93
-3.6427116 -4.3093643 -26.782806 9 94
-3.7533185 -4.4549584 -28.571371 9 95
-3.707305 -4.2868824 -28.59613 9 96
-3.6622522 -4.1206789 -28.632088 9 97
-3.6134715 -3.9474542 -28.622879 9 98
-3.5676928 -3.7799764 -28.649372 8 99
-3.5543749 -3.6710527 -29.087605 10 100
-3.5077937 -3.500942 -29.112396 10 101
-3.4603951 -3.3294318 -29.126284 10 102
-3.4125919 -3.1573141 -29.134167 10 103
-3.3658338 -2.9870181 -29.15576 9 104
-3.3191814 -2.8169038 -29.178761 9 105
-3.1818764 -2.5063293 -27.886988 9 106
-3.1762533 -2.4022181 -28.487663 8 107
-3.1297376 -2.2348335 -28.494635 9 108
-3.0841441 -2.0688195 -28.515404 9 109
-3.006335 -1.8597091 -28.020163 9 110
-2.9609642 -1.69586 -28.031149 10 111
-2.9158411 -1.5323457 -28.04607 10 112
-2.8716567 -1.3699038 -28.077337 10 113
-2.8262484 -1.2059995 -28.087753 9 114
-2.815958 -1.0772891 -28.744942 9 115
-2.8163619 -0.95288473 -29.644934 13 116
-2.7230821 -0.7420646 -28.766119 10 117
-2.7202826 -0.60710496 -29.659643 13 118
-2.6724119 -0.43435061 -29.670355 13 119
-2.6193149 -0.25869009 -29.568134 12 120
-2.5698447 -0.085731216 -29.539383 13 121
-2.5217206 0.086432867 -29.539389 16 122
-2.4740808 0.25845379 -29.55076 20 123
-2.4259775 0.43059245 -29.551115 23 124
-2.3780291 0.60272217 -29.55537 28 125
-2.3308494 0.77508372 -29.580946 29 126
-2.2825956 0.94731188 -29.578089 32 127
-2.2343953 1.1195469 -29.576649 30 128
-2.1862378 1.2918258 -29.576624 28 129
-2.1378891 1.463944 -29.570553 25 130
-2.0895164 1.6359988 -29.563416 20 131
-2.0411878 1.8080934 -29.55769 16 132
-1.9855032 1.9656916 -29.260101 13 133
-1.9327281 2.1245666 -29.046078 10 134
-1.8851807 2.2937858 -29.039778 9 135
-1.8009285 2.3420777 -27.22963 10 136
-1.7838132 2.6080585 -28.693878 10 137
-1.7365454 2.7744668 -28.674627 10 138
-1.6895144 2.9419641 -28.669226 11 139
-1.6424432 3.1094599 -28.662781 11 140
-1.5938791 3.2655194 -28.53636 11 141
-1.5447743 3.411612 -28.324827 11 142
-1.5002049 3.6022756 -28.548071 10 143
-1.4511752 3.7388484 -28.27038 10 144
-1.4044684 3.9033046 -28.251522 10 145
-1.3576353 4.0639253 -28.202003 10 146
-1.3109672 4.2279601 -28.181124 10 147
-1.2642984 4.3921995 -28.16169 10 148
-1.2167135 4.7077446 -29.200857 9 149
-1.168305 4.8767638 -29.171093 9 150
-1.119231 5.0710645 -29.305101 9 151
-1.0737858 5.1521854 -28.722561 9 152
-1.026075 5.3183212 -28.690027 9 153
-0.97827625 5.4863424 -28.66873 9 154
-0.92449331 5.7530646 -29.200178 9 155
-0.87581277 5.9231791 -29.171289 9 156
-0.82634354 6.1038308 -29.197577 10 157
-0.7780444 6.2681766 -29.137194 9 158
-0.72942495 6.4369411 -29.100212 10 159
-0.6803655 6.6105399 -29.086546 10 160
-0.63176042 6.7789555 -29.047438 9 161
-0.58329469 6.9460468 -29.002424 9 162
-0.53487682 7.112823 -28.956381 10 163
-0.49354163 7.216156 -28.637838 9 164
-0.43972868 7.4321213 -28.805536 10 165
-0.39141577 7.5987778 -28.761324 10 166
-0.34314159 7.7651515 -28.71608 10 167
-0.2947498 7.9324751 -28.67462 10 168
-0.24671575 8.0970268 -28.622492 10 169
-0.21021949 8.1758213 -28.252262 10 170
-0.26263192 7.6129317 -25.567753 9 171
-0.21895498 7.7648377 -25.536661 9 172
-0.17567055 7.913868 -25.495041 9 173
-0.13128337 8.0703821 -25.478733 9 174
0.0041123535 8.8354244 -27.485868 8 175
0.083866358 9.2130699 -28.146126 9 176
0.098230503 9.1608334 -27.405075 9 177
0.17721991 9.526475 -27.99905 10 178
0.21492687 9.6272573 -27.755095 10 179
0.26197347 9.7874765 -27.697243 10 180
0.3066012 9.9329777 -27.596022 10 181
0.35358548 10.093038 -27.538626 10 182
0.40120709 10.256877 -27.491951 10 183
0.44823772 10.417148 -27.434875 10 184
0.36031291 9.7944794 -25.231417 9 185
0.40239823 9.9348392 -25.158468 9 186
0.60540402 10.989071 -27.503973 10 187
0.65231383 11.147621 -27.437687 10 188
0.696872 11.293093 -27.338032 10 189
0.47084755 9.9463892 -23.489866 8 190
0.68078434 11.009671 -25.722771 9 191
0.72568226 11.162603 -25.667782 9 192
0.77000642 11.312386 -25.604942 9 193
0.80260777 11.399652 -25.394939 9 194
0.85045892 11.568534 -25.378456 9 195
1.0114256 12.331021 -26.71312 9 196
1.048017 12.436278 -26.529701 9 197
1.103719 12.641148 -26.569721 10 198
1.1494435 12.794024 -26.493185 10 199
1.1227572 12.577073 -25.62443 9 200
1.2293077 13.04101 -26.216232 9 201
1.2732598 13.185324 -26.123802 9 202
1.3175018 13.331178 -26.034975 9 203
1.3622761 13.479746 -25.951935 9 204
1.4080647 13.633364 -25.879059 9 205
1.2712338 12.886809 -24.040854 9 206
1.3788706 13.348373 -24.587894 9 207
1.4212843 13.488481 -24.50474 10 208
1.4647868 13.63389 -24.431656 10 209
1.5057783 13.76714 -24.335846 10 210
1.7024996 14.648824 -25.608179 9 211
1.7463125 14.792214 -25.512711 9 212
1.6620013 14.32562 -24.332943 9 213
1.7002935 14.445632 -24.211523 9 214
1.7433392 14.588256 -24.130201 9 215
1.785228 14.72542 -24.039434 9 216
1.8531723 14.984544 -24.154236 9 217
1.8962671 15.126868 -24.069519 10 218
1.9375995 15.260988 -23.971218 10 219
2.1010196 15.959775 -24.787558 7 220
2.1499274 16.126734 -24.730301 10 221
2.1887536 16.247242 -24.598763 10 222
2.2320037 16.388144 -24.499889 10 223
2.276305 16.533842 -24.408434 10 224
2.3178074 16.6668 -24.29747 9 225
2.0383506 15.347043 -22.009016 9 226
2.312016 16.532284 -23.483665 9 227
2.4515169 17.107349 -24.02718 10 228
2.3446758 16.575441 -22.956743 9 229
2.5392241 17.394405 -23.836132 10 230
2.5824313 17.535006 -23.7362 3 231
2.6255157 17.675039 -23.63537 10 232
2.6684749 17.814501 -23.533649 9 233
2.4609978 16.848242 -21.931652 9 234
2.6481338 17.625555 -22.702831 9 235
2.7938807 18.217522 -23.207418 10 236
2.8356135 18.351564 -23.098314 10 237
2.8616495 18.417067 -22.900646 10 238
2.9434202 18.725639 -23.015348 11 239
3.0008178 18.927429 -22.989965 11 240
2.9099407 18.486496 -22.161684 10 241
2.9511244 18.619135 -22.056595 10 242
2.9889128 18.737114 -21.933529 9 243
3.0283399 18.862185 -21.819244 9 244
3.0690851 18.992914 -21.711721 9 245
3.1063385 19.108675 -21.586489 9 246
3.1471593 19.239712 -21.479225 9 247
3.1863301 19.363689 -21.363689 9 248
3.2245762 19.483734 -21.24369 9 249
3.2607162 19.594862 -21.113791 9 250
3.2974277 19.708454 -20.986914 9 251
-1.2383952 0.51433408 0.2330015 11 252
3.5232475 20.577875 -21.427105 9 253
2.6231363 16.751099 -17.088816 6 254
3.5265012 20.508163 -20.845331 9 255
-1.2361687 0.48372629 0.23282167 11 0
-7.3194661 -18.311382 -20.943422 10 1
-7.1187267 -17.661064 -20.460981 8 2
-7.0856619 -17.528835 -20.561943 8 3
-6.4492569 -15.541897 -18.495218 7 4
-7.3633747 -18.319693 -22.01132 9 5
-6.2385879 -14.841209 -18.119686 6 6
-7.3046279 -18.074373 -22.265329 8 7
-7.2718606 -17.941311 -22.379934 8 8
-7.242393 -17.818306 -22.507 10 9
-7.2081866 -17.680853 -22.616184 9 10
-1.2359056 0.48480231 0.23184553 11 11
-1.2358558 0.4850044 0.23167598 11 13
-7.0928106 -17.195929 -23.137543 10 14
-1.2358052 0.48520842 0.23150896 9 15
-6.7688131 -16.152349 -22.315403 9 16
-6.7370052 -16.023565 -22.423893 10 17
-6.703083 -15.888437 -22.523676 10 18
-6.6722913 -15.762675 -22.636549 10 19
-6.6280951 -15.596904 -22.692661 10 20
-6.5010414 -15.184673 -22.3918 8 21
-6.5585847 -15.321843 -22.883955 4 22
-6.4438872 -14.947444 -22.62859 9 23
-6.3924532 -14.761155 -22.646257 9 24
-6.3474493 -14.594072 -22.691055 9 25
-6.3064885 -14.439041 -22.753082 9 26
-6.3810673 -14.623386 -23.34375 9 27
-6.3463054 -14.485911 -23.438833 10 28
-6.3535233 -14.471123 -23.730453 10 29
-6.3181043 -14.331427 -23.824608 9 30
-6.2816267 -14.188653 -23.913708 10 31
-6.2454152 -14.046661 -24.004013 10 32
-6.2107563 -13.909166 -24.10187 10 33
-6.3013949 -14.133254 -24.819418 11 34
-6.2501135 -13.946913 -24.841373 11 35
-6.2275567 -13.843243 -25.006987 11 36
-6.1468 -13.572732 -24.876778 11 37
-6.1076708 -13.421742 -24.956802 10 38
-6.0712795 -13.278573 -25.050955 10 39
-6.0318298 -13.126701 -25.129097 10 40
-5.7766647 -12.364391 -24.053652 9 41
-6.0527701 -13.104724 -25.824774 10 42
-5.7284627 -12.150813 -24.350388 8 43
-5.9514217 -12.73645 -25.868193 8 44
-5.5837264 -11.666528 -24.113161 8 45
-5.879765 -12.451715 -26.073889 10 46
-5.8397341 -12.297576 -26.153381 10 47
-5.7983952 -12.139825 -26.225248 10 48
-5.7588167 -11.986957 -26.307245 10 49
-5.7217026 -11.840851 -26.403933 10 50
-5.6810184 -11.684907 -26.479612 10 51
-5.6405501 -11.52956 -26.556566 10 52
-5.4710836 -11.023635 -25.839733 10 53
-5.4209876 -10.843569 -25.847046 10 54
-5.4898267 -10.984437 -26.602716 10 55
-5.4603896 -10.859007 -26.747992 10 56
-5.4365687 -10.748343 -26.931395 10 57
-5.4296975 -10.682428 -27.228556 11 58
-5.3315125 -10.37358 -26.926229 10 59
-5.2179084 -10.025354 -26.510881 9 60
-5.252811 -10.069112 -27.092794 10 61
-5.2109985 -9.9103546 -27.159727 10 62
-1.2344211 0.4906005 0.22830798 10 63
-5.1423502 -9.6316223 -27.39954 11 64
-5.0879512 -9.4402161 -27.377838 11 65
-5.0458612 -9.2806845 -27.443203 10 66
-5.0036273 -9.1207752 -27.507586 10 67
-4.9596829 -8.9565191 -27.559286 10 68
-4.9171829 -8.7959385 -27.621668 10 69
-4.8696437 -8.6227131 -27.645487 10 70
-4.8266215 -8.4608803 -27.703453 10 71
-4.7843676 -8.3009472 -27.767487 10 72
-4.7410774 -8.1384354 -27.823458 10 73
-4.69912 -7.9791794 -27.890255 9 74
-4.6526818 -7.8089914 -27.920515 9 75
-4.6084681 -7.6442642 -27.968678 9 76
-4.5795851 -7.516253 -28.146736 10 77
-4.432198 -7.1061587 -27.308353 9 78
-4.3117776 -6.7634335 -26.678431 8 79
-4.269908 -6.6073351 -26.724791 8 80
-4.2300563 -6.4559145 -26.78936 8 81
-4.2946157 -6.5444679 -27.811008 9 82
-4.2508698 -6.3818469 -27.85606 9 83
-4.2067614 -6.2184038 -27.897692 9 84
-4.1630549 -6.0558696 -27.94313 8 85
-4.1207185 -5.8963532 -28.002062 9 86
-4.0736027 -5.7262869 -28.014055 9 87
-4.0276732 -5.5589275 -28.037069 9 88
-3.8228285 -5.0513177 -26.423805 8 89
-3.7821536 -4.899282 -26.471653 8 90
-3.7146628 -4.6911426 -26.233973 8 91
-3.8840928 -4.9730692 -28.559341 8 92
-3.8383536 -4.8053565 -28.589775 8 93
-3.7944853 -4.6414194 -28.641138 8 94
-3.6598375 -4.2980838 -27.650229 9 95
-3.6164849 -4.1377907 -27.688643 9 96
-3.5728188 -3.9768553 -27.723625 9 97
-3.5284493 -3.8145685 -27.750256 9 98
-3.4441509 -3.5787208 -27.280029 8 99
-3.5485752 -3.6866453 -29.186253 8 100
-3.5023618 -3.5169835 -29.218513 8 101
-3.3110723 -3.0965092 -27.327278 9 102
-3.265897 -2.9345071 -27.331161 9 103
-3.3185117 -2.9334247 -28.690121 8 104
-3.1798637 -2.6177766 -27.397543 8 105
-3.0012972 -2.2488885 -25.462385 9 106
-2.9603996 -2.100178 -25.480621 9 107
-2.9213853 -1.9541979 -25.527607 9 108
-2.8798432 -1.8044719 -25.536591 9 109
-2.997745 -1.868448 -28.104702 9 110
-2.9511464 -1.7027774 -28.098394 9 111
-2.9933786 -1.6453527 -29.595549 9 112
-2.9445381 -1.4715118 -29.590378 9 113
-2.8772924 -1.2779632 -29.254152 10 114
-2.8301959 -1.1075683 -29.269003 11 115
-2.7831643 -0.93720776 -29.285278 11 116
-2.7361877 -0.76684457 -29.302984 11 117
-2.5675056 -0.50500906 -26.852463 10 118
-2.5243368 -0.34864461 -26.867374 10 119
-2.4804108 -0.19178405 -26.866398 10 120
-2.5551429 -0.087512441 -29.534777 12 121
-2.5071976 0.084541947 -29.539757 15 122
-2.4593091 0.25659105 -29.546156 18 123
-2.4022093 0.42921844 -29.320164 19 124
-2.354497 0.59999162 -29.321918 23 125
-2.3067443 0.77076125 -29.322615 27 126
-2.2569649 0.94066358 -29.265034 27 127
-2.2092295 1.1110771 -29.263607 29 128
-2.1606748 1.2808086 -29.23625 28 129
-2.1135058 1.4516714 -29.252604 25 130
-2.0502071 1.6011344 -28.700975 20 131
-2.0033696 1.7684551 -28.70039 18 132
-1.9564258 1.9356643 -28.696278 13 133
-1.8734722 2.017715 -27.155527 11 134
-1.8287967 2.1755545 -27.142344 10 135
-1.8293327 2.4833982 -29.368025 11 136
-1.7396619 2.4917791 -27.125444 10 137
-1.7372459 2.845572 -29.605467 10 138
-1.6884286 3.0171692 -29.584772 10 139
-1.6399246 3.1906037 -29.585323 9 140
-1.5911782 3.3626854 -29.569921 9 141
-1.5263723 3.3779922 -28.015652 10 142
-1.4800529 3.540194 -27.99159 10 143
-1.4336957 3.7013581 -27.959105 10 144
-1.3874619 3.8640068 -27.940454 9 145
-1.3453616 4.1595564 -28.982874 9 146
-1.2973413 4.326139 -28.946615 9 147
-1.2493902 4.4974799 -28.94632 9 148
-1.2013984 4.6643572 -28.912907 9 149
-1.153262 4.8408604 -28.944942 10 150
-1.1054105 5.001121 -28.86759 10 151
-1.0573514 5.1708846 -28.853189 10 152
-1.0093894 5.3377604 -28.820532 9 153
-0.96138322 5.5056744 -28.794199 9 154
-0.91337854 5.6734371 -28.766817 9 155
-0.8655318 5.8387866 -28.726151 9 156
-0.8124513 6.0740857 -29.053682 9 157
-0.76389086 6.2433438 -29.022772 9 158
-0.73708373 6.163249 -27.758852 9 159
-0.66646808 6.5848708 -28.974834 9 160
-0.65340793 6.391757 -27.251883 9 161
-0.58879459 6.7337823 -28.050091 9 162
-0.54180747 6.896162 -28.010162 9 163
-0.49497983 7.0571566 -27.964376 9 164
-0.4251841 7.4153113 -28.745392 10 165
-0.37786469 7.5739217 -28.669849 9 166
-0.32963353 7.7403622 -28.627151 10 167
-0.28127608 7.9077806 -28.588236 9 168
-0.27239615 7.7755699 -27.410234 9 169
-0.22632885 7.9334259 -27.361423 9 170
-0.18003933 8.0929413 -27.318832 9 171
-0.13387494 8.2515373 -27.272844 9 172
-0.087849483 8.4091673 -27.223482 9 173
-0.014755173 8.7504101 -27.798273 9 174
0.032327425 8.9117222 -27.748222 9 175
0.080479801 9.0800266 -27.72094 9 176
0.12750977 9.2408648 -27.668835 9 177
0.1453329 9.2167454 -27.037825 8 178
0.22426207 9.5793123 -27.615988 9 179
0.23834379 9.5372467 -26.95211 8 180
0.2846278 9.6960011 -26.904192 8 181
0.39751258 10.253537 -28.011246 9 182
0.4455477 10.417606 -27.956547 9 183
0.42228562 10.16488 -26.738041 8 184
0.43054643 10.103683 -26.086187 9 185
0.57758003 10.840518 -27.604576 9 186
0.51971757 10.405963 -25.968159 9 187
0.67642778 11.185155 -27.542389 9 188
0.72200066 11.335743 -27.454056 9 189
0.76959628 11.497613 -27.394836 9 190
0.80432057 11.589307 -27.161934 10 191
0.85082448 11.74577 -27.091906 10 192
0.89778215 11.904676 -27.027782 9 193
0.96696991 12.18169 -27.241396 10 194
0.9597885 12.054109 -26.509117 11 195
1.0403788 12.390201 -26.854393 10 196
1.091791 12.572034 -26.840605 9 197
1.1381669 12.727507 -26.766748 9 198
1.1848618 12.884612 -26.696428 9 199
1.2298372 13.032931 -26.607134 9 200
1.2757273 13.185956 -26.52816 9 201
1.3215197 13.338499 -26.448236 9 202
1.3685186 13.497084 -26.380739 10 203
1.4021776 13.589295 -26.178913 10 204
1.4715834 13.858872 -26.333496 7 205
1.5169647 14.00906 -26.247198 11 206
1.5303302 14.002718 -25.858398 9 207
1.5314145 13.938267 -25.367458 9 208
1.6567482 14.477338 -26.022148 11 209
1.7017323 14.625576 -25.932047 11 210
1.7170814 14.631783 -25.58246 10 211
1.7613748 14.777418 -25.491407 10 212
1.8058014 14.923707 -25.401621 10 213
1.848296 15.06087 -25.29587 10 214
1.8921989 15.204744 -25.202183 10 215
1.9343739 15.340536 -25.094799 10 216
1.9788101 15.486966 -25.005777 10 217
1.9044058 15.08075 -23.997774 9 218
1.9459101 15.21574 -23.901855 9 219
1.816345 14.561413 -22.527695 8 220
2.0313609 15.497026 -23.728523 9 221
2.1545522 16.00617 -24.223192 10 222
2.1948235 16.134232 -24.109142 10 223
2.2378688 16.274988 -24.015085 10 224
2.298491 16.495392 -24.041908 10 225
2.4076855 16.934622 -24.393671 10 226
2.3893309 16.797686 -23.88113 10 227
2.4243989 16.90226 -23.731943 10 228
2.4745667 17.074581 -23.68177 10 229
2.4446585 16.889633 -23.120945 10 230
2.4859779 17.023275 -23.020075 10 231
2.5278141 17.159204 -22.922379 9 232
2.5705156 17.298939 -22.829796 9 233
2.6104591 17.426477 -22.720413 9 234
2.650914 17.556286 -22.614208 9 235
2.6973288 17.712215 -22.542625 9 236
2.735497 17.83197 -22.422903 9 237
2.777281 17.967537 -22.323942 9 238
2.8179007 18.098009 -22.218273 9 239
2.8576753 18.22481 -22.107918 9 240
2.8997929 18.361746 -22.010231 9 241
2.9706061 18.622404 -22.064581 9 242
3.014236 18.765444 -21.971912 9 243
2.8893826 18.185265 -21.009512 9 244
2.9320219 18.325632 -20.923088 8 245
-1.2280766 0.51272756 0.23225287 12 246
3.0080462 18.566656 -20.702538 9 247
3.2851048 19.70364 -21.756954 9 248
3.325608 19.832434 -21.642216 9 249
3.3605418 19.937634 -21.500978 9 250
3.3089516 19.677433 -20.956249 9 251
3.4324303 20.156799 -21.229591 9 252
3.3201578 19.643047 -20.421408 9 253
3.3833423 19.868404 -20.418022 8 254
3.5258732 20.425682 -20.761898 8 255
-7.3110471 -18.368858 -20.750113 9 0
-7.4448085 -18.75174 -21.438103 9 1
-7.4135337 -18.623325 -21.556915 9 2
-7.3830767 -18.497437 -21.678606 9 3
-7.3539371 -18.375595 -21.80508 9 4
-7.3219962 -18.245125 -21.921541 9 5
-7.2888231 -18.110882 -22.033445 9 6
-7.2549429 -17.974485 -22.142612 9 7
-7.2203617 -17.835972 -22.249004 9 8
-7.1886005 -17.706083 -22.365889 9 9
-7.1541271 -17.56793 -22.472437 9 10
-1.2262105 0.48290804 0.23177481 10 11
-1.2261856 0.48300886 0.23168972 11 12
-7.0951486 -17.288164 -22.966892 11 13
-6.9417214 -16.790325 -22.599611 9 14
-1.2261101 0.48331422 0.23143825 11 15
-7.0011249 -16.901463 -23.328686 10 16
-6.9688311 -16.769638 -23.445808 11 17
-6.9372606 -16.639957 -23.566116 11 18
-6.8037362 -16.205187 -23.257349 10 19
-6.7680793 -16.063868 -23.356239 10 20
-6.7331748 -15.924805 -23.458244 7 21
-6.6962218 -15.779656 -23.55131 7 22
-6.6627927 -15.64499 -23.659651 8 23
-6.7194567 -15.776984 -24.168268 4 24
-6.5766234 -15.318564 -23.790085 9 25
-6.6223073 -15.41708 -24.256964 10 26
-6.5696483 -15.225377 -24.280733 9 27
-6.4219446 -14.755149 -23.862169 9 28
-6.5424538 -15.07124 -24.689482 10 29
-6.5056491 -14.925951 -24.787388 10 30
-6.4699669 -14.783926 -24.890675 10 31
-6.4314728 -14.633716 -24.980497 10 32
-6.0644212 -13.531758 -23.461514 9 33
-6.027976 -13.389977 -23.543438 9 34
-5.9905281 -13.245324 -23.620211 9 35
-5.9563127 -13.109991 -23.713116 9 36
-5.9302754 -12.998076 -23.848028 9 37
-5.8960342 -12.86256 -23.941601 10 38
-5.9476986 -12.971834 -24.484974 10 39
-5.9062681 -12.81512 -24.546021 10 40
-5.8955584 -12.745518 -24.77099 10 41
-5.8408165 -12.551086 -24.760788 10 42
-5.7682333 -12.306713 -24.650732 10 43
-5.6469955 -11.926367 -24.266697 10 44
-5.4873562 -11.440063 -23.656668 9 45
-5.6097913 -11.74276 -24.629858 8 46
-5.8408666 -12.34454 -26.247322 11 47
-5.8017178 -12.192593 -26.332785 10 48
-5.7749019 -12.07468 -26.490793 11 49
-5.7213845 -11.883046 -26.491989 10 50
-5.311204 -10.71395 -24.346231 7 51
-5.617528 -11.50924 -26.508099 10 52
-5.6216125 -11.475091 -26.858734 10 53
-5.5805221 -11.317563 -26.934378 9 54
-5.5417867 -11.16639 -27.0249 9 55
-5.5014267 -11.010794 -27.105444 9 56
-5.4601879 -10.85282 -27.180489 9 57
-5.3620601 -10.495288 -27.226948 9 59
-5.3307452 -10.363686 -27.367651 10 60
-1.2247906 0.48846605 0.22833823 9 61
-5.2469587 -10.044298 -27.508781 9 62
-5.1274123 -9.6822128 -27.036959 10 63
-5.0866241 -9.5263472 -27.108416 10 64
-5.0453515 -9.3692055 -27.1766 10 65
-5.0045676 -9.2132988 -27.248472 10 66
-5.0241003 -9.2113485 -27.764997 10 67
-4.9810524 -9.04877 -27.826607 10 68
-4.9384885 -8.8874102 -27.891895 10 69
-4.895165 -8.724124 -27.951498 10 70
-4.7419944 -8.2867603 -27.155958 9 71
-4.6988301 -8.1255512 -27.20472 9 72
-4.6579227 -7.9699287 -27.271364 9 73
-4.6151075 -7.809587 -27.322866 9 74
-4.5721779 -7.6489744 -27.373371 10 75
-4.5294189 -7.4887829 -27.425249 10 76
-4.4876628 -7.3309913 -27.485655 10 77
-4.3857331 -7.0300169 -27.027611 10 78
-4.3425775 -6.8699398 -27.068459 10 79
-4.3001399 -6.7115722 -27.11548 10 80
-4.2578568 -6.5535612 -27.163916 10 81
-4.2165046 -6.3976803 -27.22098 9 82
-4.2864709 -6.495717 -28.316 8 83
-4.2424479 -6.3313236 -28.365568 8 84
-4.1970487 -6.1638246 -28.40206 8 85
-3.9563925 -5.5636568 -26.526518 8 86
-3.9142995 -5.4079914 -26.562971 9 87
-3.8723564 -5.2526603 -26.60088 9 88
-3.8310244 -5.0986376 -26.645105 9 89
-3.7879548 -4.9408946 -26.671377 9 90
-3.9454942 -5.2029724 -28.839758 10 91
-3.8998346 -5.0345082 -28.876495 10 92
-3.8545194 -4.8667426 -28.917063 10 93
-3.8039029 -4.6883044 -28.897997 10 94
-3.7571869 -4.5178652 -28.921759 9 95
-3.7314799 -4.3883667 -29.191605 9 96
-3.6844602 -4.2167606 -29.215942 9 97
-3.6369736 -4.0443158 -29.234303 9 98
-3.5908179 -3.874393 -29.268763 9 99
-3.5406992 -3.6972716 -29.253029 9 100
-3.3941207 -3.349633 -27.981882 9 101
-3.3507361 -3.188519 -28.024288 9 102
-3.3055873 -3.0243139 -28.043535 9 103
-3.2374752 -2.8223293 -27.743687 8 104
-3.1937563 -2.6615 -27.775446 8 105
-3.1478984 -2.4972775 -27.776577 9 106
-3.2122879 -2.4990973 -29.420012 9 107
-3.1642909 -2.326324 -29.427597 10 108
-3.1176848 -2.1555805 -29.456373 10 109
-3.0403357 -1.9435132 -28.991388 10 110
-2.9935675 -1.774244 -29.00539 10 111
-2.9471817 -1.6054559 -29.02577 10 112
-2.9001496 -1.4358803 -29.035189 10 113
-2.8548694 -1.2682335 -29.075804 10 114
-2.8372221 -1.128144 -29.629158 10 115
-2.7891362 -0.955208 -29.63563 10 116
-2.7415149 -0.78270239 -29.650959 12 117
-2.6933341 -0.60972589 -29.655279 13 118
-2.6455896 -0.43707716 -29.668463 14 119
-2.5977778 -0.26433748 -29.680576 14 120
-2.5139453 -0.075595371 -28.881067 13 121
-2.5013223 0.081596605 -29.686665 15 122
-2.3564734 0.27351874 -27.340282 19 123
-2.31213 0.43287516 -27.345387 22 124
-2.2676454 0.59225398 -27.347017 25 125
-2.2239354 0.75183636 -27.370043 29 126
-2.1791687 0.91125709 -27.364714 30 127
-2.1345479 1.070709 -27.363369 28 128
-2.1017032 1.2401198 -27.736595 25 129
-2.0563366 1.4016126 -27.730738 22 130
-2.0110183 1.563139 -27.72636 18 131
-1.9640186 1.7218981 -27.658829 14 132
-1.9505348 1.94622 -28.925001 13 133
-1.9035195 2.115427 -28.932198 12 134
-1.8557831 2.2829218 -28.908535 11 135
-1.8047739 2.4391897 -28.71994 10 136
-1.7575871 2.6061645 -28.706675 10 137
-1.7103472 2.77284 -28.68989 10 138
-1.6630679 2.939167 -28.669588 10 139
-1.6160001 3.1066632 -28.663134 9 140
-1.5551758 3.164387 -27.513416 8 141
-1.5230104 3.4539931 -28.768419 10 142
-1.4755255 3.6208138 -28.746378 11 143
-1.4279069 3.7852178 -28.703516 10 144
-1.380538 3.9530559 -28.691776 10 145
-1.3328635 4.1118808 -28.607361 10 146
-1.2855266 4.2776046 -28.581236 10 147
-1.2382051 4.4434733 -28.556549 10 148
-1.1908937 4.6088195 -28.52837 10 149
-1.1435795 4.7750607 -28.50655 9 150
-1.0963674 4.9373708 -28.459093 9 151
-1.0491292 5.1020293 -28.427851 9 152
-1.0005378 5.2963142 -28.574831 8 153
-0.95305055 5.4615555 -28.54137 8 154
-0.9055351 5.6274371 -28.511787 8 155
-0.85793823 5.7944875 -28.488516 9 156
-0.81033003 5.9614325 -28.464195 8 157
-0.75399745 6.2351866 -28.983475 9 158
-0.70555657 6.4040518 -28.95154 9 159
-0.67382276 6.3930492 -28.056023 8 160
-0.63948274 6.4277349 -27.421991 9 161
-0.60135031 6.5115499 -27.043674 8 162
-0.55590153 6.6697955 -27.01235 8 163
-0.50026661 6.9186134 -27.370268 9 164
-0.45499405 7.0718374 -27.307369 9 165
-0.4090445 7.2310529 -27.270136 9 166
-0.36311591 7.3900547 -27.231907 9 167
-0.29814711 7.697464 -27.771015 9 168
-0.22977035 8.0227013 -28.350641 9 169
-0.18112674 8.1937437 -28.329147 9 170
-0.12704241 8.4037752 -28.448046 10 171
-0.11064228 8.345583 -27.607679 9 172
-0.063702054 8.5079041 -27.567293 9 173
-0.01708992 8.6679134 -27.518726 10 174
0.029264042 8.8261986 -27.464399 10 175
0.075779729 8.9855871 -27.413849 10 176
0.12271114 9.147645 -27.371796 10 177
0.16914824 9.3064737 -27.319244 10 178
0.21528836 9.4634457 -27.260973 10 179
0.2617434 9.6223927 -27.208811 10 180
0.33010271 9.9142466 -27.54883 10 181
0.37712881 10.074848 -27.49387 10 182
0.42396584 10.234306 -27.435556 10 183
0.4711737 10.39593 -27.383268 10 184
0.51967049 10.564944 -27.350967 10 185
0.56638432 10.723537 -27.2896 10 186
0.61381042 10.886158 -27.238867 9 187
0.6900118 11.209944 -27.60676 10 188
0.71118969 11.225152 -27.171288 9 189
0.75825959 11.385411 -27.112734 9 190
0.80476934 11.542563 -27.046255 9 191
0.85068184 11.696485 -26.971907 9 192
0.8964963 11.849924 -26.896616 9 193
0.94257659 12.004819 -26.824957 10 194
0.98857135 12.159275 -26.752337 10 195
1.0342888 12.312289 -26.676485 10 196
1.0760229 12.444617 -26.554359 10 197
1.1194862 12.586179 -26.454144 9 198
0.65256828 10.11009 -20.661192 6 199
1.1080662 12.368625 -25.183546 9 200
0.98595583 11.675393 -23.340115 8 201
1.027086 11.813958 -23.27837 7 202
1.2488724 12.85625 -25.06752 8 203
1.256556 12.823158 -24.631889 9 204
1.3059088 12.998157 -24.620596 10 205
1.4977911 13.873903 -25.98148 2 206
1.5264969 13.943466 -25.743193 9 207
1.4566349 13.53406 -24.596533 10 208
1.5108535 13.731215 -24.619383 9 209
1.567283 13.938488 -24.65811 9 210
1.6270025 14.160923 -24.72123 10 211
1.684608 14.372524 -24.760824 10 212
1.7251701 14.502499 -24.65193 10 213
1.8007892 14.798472 -24.834803 10 214
1.8769722 15.095778 -25.01276 10 215
1.9198421 15.235499 -24.914576 10 216
1.9809526 15.460485 -24.960249 10 217
1.947055 15.242694 -24.266214 10 218
2.0337033 15.586509 -24.509373 10 219
2.1475754 16.05447 -24.944864 10 220
-1.2191833 0.50827181 0.23017417 10 221
2.1797919 16.086964 -24.349703 10 222
2.2222917 16.225109 -24.24971 10 223
2.2646527 16.36264 -24.148869 9 224
2.3062749 16.496836 -24.043058 10 225
2.3483477 16.633104 -23.940554 10 226
2.2300439 16.046886 -22.768715 9 227
2.2885826 16.259459 -22.791286 9 228
2.4821873 17.076101 -23.682848 10 229
2.5136096 17.16478 -23.512115 10 230
2.5703599 17.366423 -23.502117 10 231
2.3352442 16.273132 -21.689159 9 232
2.6148081 17.46316 -23.054241 9 233
2.4117889 16.519037 -21.488199 9 234
2.6580117 17.556398 -22.613222 9 235
2.6047194 17.275326 -21.963106 9 236
2.8565557 18.330822 -23.074116 10 237
2.8991127 18.468615 -22.970123 10 238
2.7776525 17.892946 -21.955338 9 239
3.0134881 18.871073 -22.921656 10 240
-1.2185421 0.51034659 0.23175025 11 241
3.0928793 19.121117 -22.677208 10 242
-1.2184803 0.51054358 0.23192191 10 243
2.6439536 17.10186 -19.706381 8 244
2.6823623 17.226873 -19.61721 8 245
2.7475641 17.466381 -19.662054 8 246
2.7965789 17.636261 -19.62265 8 247
2.8392224 17.778769 -19.550333 8 248
2.8990967 17.994312 -19.559902 8 249
2.9727821 18.267914 -19.631662 8 250
2.9892299 18.29884 -19.430895 8 251
3.1499758 18.938847 -19.897646 8 252
3.4396071 20.11919 -20.93408 9 253
3.485667 20.271879 -20.847082 9 254
3.5453918 20.481724 -20.819527 9 255
-7.5197477 -19.056335 -21.515236 9 0
-7.4894462 -18.930679 -21.639584 9 1
-7.4604726 -18.809118 -21.768656 9 2
-6.9065895 -17.068628 -20.028841 7 3
-6.8741288 -16.939018 -20.125992 8 4
-7.3685031 -18.428776 -22.138578 9 5
-7.0479364 -17.412418 -21.196741 8 6
-7.0441017 -17.369312 -21.40868 8 7
-6.8589711 -16.771589 -20.942413 8 8
-6.974339 -17.092703 -21.603476 8 9
-6.9409513 -16.959009 -21.706163 8 10
-6.9128294 -16.841349 -21.829088 8 11
-7.0682325 -17.280693 -22.670534 9 12
-7.0361381 -17.14986 -22.785952 9 13
-7.0009003 -17.009512 -22.888893 9 14
-1.216148 0.4819414 0.23114206 10 15
-6.9308333 -16.730108 -23.095995 12 16
-6.8926454 -16.580946 -23.186361 11 17
-1.216071 0.48225099 0.23089628 13 18
-6.8229051 -16.302643 -23.393963 10 19
-6.7884502 -16.164742 -23.499453 10 20
-6.5959458 -15.555676 -22.924706 10 21
-6.5769353 -15.464722 -23.090132 9 22
-6.4667025 -15.102804 -22.855871 9 23
-6.4278135 -14.953182 -22.931482 9 24
-6.3942647 -14.819406 -23.030607 9 25
-6.07476 -13.842529 -21.831409 8 26
-6.0409398 -13.709888 -21.91535 7 27
-6.0109797 -13.58859 -22.017075 9 28
-5.9484673 -13.371955 -21.966408 9 29
-5.9183145 -13.250245 -22.06613 9 30
-5.88446 -13.117713 -22.148396 9 31
-6.1718988 -13.918861 -23.787535 9 32
-5.81844 -12.857575 -22.320965 9 33
-6.3330936 -14.310819 -25.120216 10 34
-6.3111234 -14.208387 -25.292053 9 35
-6.2567215 -14.012448 -25.301401 10 36
-1.2155523 0.48430395 0.22947673 10 37
-6.1182466 -13.53649 -25.16086 9 38
-6.0955706 -13.432045 -25.329008 9 39
-6.0818763 -13.352886 -25.546547 10 40
-6.0437112 -13.20394 -25.635963 10 41
-6.003758 -13.049931 -25.715755 10 42
-1.215378 0.48498258 0.22907951 10 43
-1.2153485 0.48509696 0.22901577 10 44
-5.8837743 -12.58766 -25.953663 10 45
-5.8368182 -12.37144 -26.301416 10 47
-1.2152293 0.48555812 0.22876789 10 48
-5.7687721 -12.095723 -26.534065 11 49
-5.6791482 -11.804604 -26.321001 9 50
-5.551548 -11.410275 -25.872339 10 51
-4.2318745 -7.7594976 -18.149059 5 52
-5.5983839 -11.449386 -26.798862 11 53
-5.5573788 -11.29221 -26.874331 11 54
-5.336627 -10.649394 -25.814081 8 55
-5.4017663 -10.779795 -26.554501 10 56
-5.3539772 -10.605241 -26.58025 10 57
-5.3127913 -10.448466 -26.648178 9 58
-5.2714653 -10.291326 -26.715126 9 59
-5.2896996 -10.291739 -27.182674 10 60
-5.2484975 -10.134216 -27.255564 10 61
-5.2071362 -9.9762602 -27.327486 9 62
-5.1656179 -9.8178749 -27.398443 9 63
-5.1134772 -9.6319008 -27.394281 9 64
-5.0714383 -9.4722681 -27.460796 9 65
-5.028933 -9.3114281 -27.524 9 66
-4.9840765 -9.144577 -27.569878 9 67
-4.9410114 -8.9823389 -27.628712 10 68
-4.9157524 -8.8651037 -27.822439 10 69
-4.8725319 -8.7022247 -27.881884 10 70
-4.8288774 -8.5382595 -27.937965 10 71
-4.785996 -8.3762207 -28.000101 10 72
-4.7417922 -8.2108994 -28.051788 10 73
-4.69835 -8.0474615 -28.109545 11 74
-4.6547751 -7.8836889 -28.16629 11 75
-4.4241118 -7.267787 -26.656157 9 76
-4.382143 -7.1110997 -26.703239 9 77
-4.34062 -6.9554825 -26.754114 9 78
-4.2989774 -6.7995715 -26.804028 9 79
-4.2574859 -6.6440005 -26.855373 9 80
-4.2145438 -6.4850349 -26.893774 9 81
-4.3257775 -6.6814137 -28.347799 9 82
-4.2817483 -6.5168529 -28.398502 8 83
-4.2388635 -6.3548579 -28.460234 8 84
-3.9801345 -5.7090545 -26.441538 9 85
-3.9389441 -5.5554972 -26.486132 9 86
-3.8990965 -5.4048643 -26.544296 9 87
-3.8610032 -5.2579446 -26.620935 9 88
-3.8189318 -5.1022944 -26.6579 9 89
-3.7765357 -4.9459524 -26.691471 8 90
-3.8109424 -4.9505343 -27.546289 8 91
-3.7666409 -4.7881765 -27.574078 8 92
-3.8557086 -4.8978972 -29.08112 8 93
-3.8091595 -4.7271981 -29.111073 9 94
-3.7625327 -4.5563688 -29.139959 9 95
-3.7177043 -4.3890676 -29.189804 10 96
-3.6684387 -4.2131653 -29.187185 9 97
-3.6218004 -4.0423994 -29.215317 9 98
-3.5756733 -3.8725898 -29.249748 9 99
-3.4870231 -3.6257315 -28.742569 9 100
-3.4419298 -3.4592988 -28.779318 9 101
-3.3956151 -3.2906857 -28.800272 9 102
-3.3501434 -3.1235266 -28.832495 9 103
-3.3042169 -2.9555669 -28.858753 10 104
-3.2569942 -2.7855091 -28.866697 10 105
-3.2111003 -2.6176147 -28.89333 9 106
-3.1646225 -2.4488027 -28.911509 9 107
-3.1177592 -2.2794435 -28.923691 8 108
-3.0665953 -2.1041064 -28.868008 8 109
-3.0249758 -1.9421356 -28.962217 8 110
-3.013144 -1.8178347 -29.553408 10 111
-2.9655926 -1.6455245 -29.569115 11 112
-2.9179783 -1.4731373 -29.58375 11 113
-2.8708541 -1.3012766 -29.607241 11 114
-2.8213623 -1.1269428 -29.587473 10 115
-2.7732151 -0.9541294 -29.591434 9 116
-2.7086627 -0.76753944 -29.271427 10 117
-2.5838892 -0.53859609 -27.702877 12 118
-2.5366828 -0.37552595 -27.660841 12 119
-2.492552 -0.21464126 -27.682415 13 120
-2.4477773 -0.05331476 -27.690556 13 121
-2.4029503 0.10806026 -27.697695 15 122
-2.3582764 0.2694377 -27.708807 18 123
-2.3840868 0.42679936 -29.509802 23 124
-2.3361154 0.59867734 -29.511551 29 125
-2.2882833 0.77059764 -29.517206 33 126
-2.2400529 0.94241595 -29.511845 36 127
-2.1919656 1.1142642 -29.510387 32 128
-2.1440766 1.2862886 -29.515324 30 129
-2.0958345 1.4580489 -29.509243 26 130
-2.0480578 1.6304097 -29.519499 22 131
-2.0006633 1.8036662 -29.546082 16 132
-1.9124168 1.8958404 -27.933678 12 133
-1.7922206 1.8807721 -24.723337 10 134
-1.832387 2.2536726 -28.449341 9 135
-1.7750952 2.3836367 -27.908279 9 136
-1.7285029 2.5430324 -27.855593 10 137
-1.6834437 2.7085049 -27.886293 9 138
-1.6377418 2.8716607 -27.883703 10 139
-1.5919923 3.0348458 -27.880095 9 140
-1.5601317 3.3106871 -29.047411 10 141
-1.5052109 3.4094908 -28.342794 10 142
-1.4606916 3.6021256 -28.583332 9 143
-1.4113905 3.7338378 -28.261082 11 144
-1.3628263 3.8563149 -27.891235 10 145
-1.3167063 4.0182595 -27.86912 10 146
-1.271319 4.2256942 -28.194006 9 147
-1.2246405 4.3900051 -28.174541 9 148
-1.1781031 4.5362439 -28.028379 9 149
-1.1316297 4.6988692 -28.00205 9 150
-1.0802339 5.0314274 -29.074327 9 151
-1.0319436 5.2008147 -29.049885 9 152
-0.98368984 5.3692436 -29.019478 9 153
-0.93538296 5.5387383 -28.995382 9 154
-0.88704252 5.7085457 -28.972675 9 155
-0.86108547 5.5551167 -27.196262 8 156
-0.81558293 5.7150822 -27.175806 7 157
-0.74667674 6.1597891 -28.605091 8 158
-0.698955 6.3254876 -28.568716 9 159
-0.65107 6.492979 -28.541061 9 160
-0.60338694 6.6582522 -28.502615 9 161
-0.58000112 6.5891972 -27.401093 10 162
-0.53408378 6.7484007 -27.364435 10 163
-0.48717311 6.9163971 -27.365564 10 164
-0.44130909 7.0747919 -27.32445 10 165
-0.39555252 7.2323303 -27.279936 10 166
-0.34961432 7.3913875 -27.241684 10 167
-0.30393809 7.5483675 -27.195213 9 168
-0.25797567 7.707571 -27.157393 8 169
-0.24028751 7.6582313 -26.345093 9 170
-0.19583935 7.8112502 -26.301741 9 171
-0.15152358 7.9633303 -26.255037 9 172
-0.10715403 8.1158047 -26.209785 9 173
-0.011551389 8.614872 -27.342237 9 174
0.035252724 8.7771521 -27.304886 9 175
0.082051851 8.9392719 -27.266508 9 176
0.12861307 9.0997391 -27.222349 9 177
0.18808521 9.3417234 -27.432966 10 178
0.23440765 9.4993486 -27.374468 9 179
0.27849096 9.6432657 -27.274891 9 180
0.32447708 9.7991028 -27.212175 9 181
0.37106234 9.9585791 -27.16025 9 182
0.41676876 10.112821 -27.093252 9 183
0.44055697 10.139208 -26.669708 8 184
0.4863655 10.295604 -26.615612 9 185
0.53182614 10.449973 -26.555874 8 186
0.57551408 10.594321 -26.469612 8 187
0.62016672 10.744256 -26.398737 8 188
0.62241954 10.659297 -25.727842 9 189
0.66335005 10.791059 -25.621958 9 190
0.70731646 10.93965 -25.559095 9 191
0.59467816 10.243165 -23.442396 7 192
0.83424324 11.44551 -25.932222 8 193
0.88434023 11.624975 -25.933846 9 194
0.96373755 11.958382 -26.289661 9 195
1.0189517 12.162599 -26.337753 9 196
1.0820786 12.407163 -26.47266 10 197
1.1281668 12.562582 -26.404306 8 198
1.00019 11.826298 -24.396366 9 199
1.1725079 12.629872 -25.745405 9 200
1.2842867 13.118949 -26.388372 9 201
1.3297838 13.270703 -26.308834 9 202
1.1990448 12.541831 -24.425634 8 203
1.4058567 13.500105 -26.000313 10 204
1.4507997 13.649549 -25.918409 10 205
1.4908267 13.774846 -25.789207 10 206
1.4369239 13.441299 -24.774494 9 207
1.5821615 14.081056 -25.640823 10 208
1.5609568 13.910546 -24.958225 9 209
1.3406186 12.784357 -22.521519 7 210
1.6713359 14.310843 -24.99699 10 211
1.1120095 11.579104 -19.728006 6 212
1.8024033 14.807318 -25.19558 10 213
1.8395559 14.920012 -25.049656 9 214
1.8819227 15.057534 -24.94824 9 215
1.9236 15.191882 -24.841736 9 216
1.7218524 14.189953 -22.821508 8 217
1.7732915 14.374384 -22.824312 9 218
1.7840631 14.370057 -22.515146 9 219
2.0964613 15.758388 -24.466909 5 220
2.1325164 15.867116 -24.320702 10 221
2.1749153 16.005135 -24.222044 10 222
2.216593 16.139877 -24.118382 10 223
2.2761936 16.356159 -24.140297 11 224
2.2649944 16.251064 -23.671305 9 225
2.3076155 16.390694 -23.578522 10 226
2.3495107 16.527031 -23.480753 10 227
2.3925202 16.668371 -23.390284 9 228
2.4744139 16.983603 -23.550594 10 229
2.4915915 17.009136 -23.291489 10 230
2.5492351 17.215239 -23.290483 10 231
2.6909745 17.793657 -23.804689 10 232
2.7056065 17.807735 -23.528656 10 233
2.7467337 17.93928 -23.416115 10 234
-1.2087684 0.50837106 0.23095524 11 235
2.7782941 17.980284 -22.897432 10 236
2.8324604 18.169472 -22.864176 10 237
2.593179 17.07934 -21.176357 9 238
2.7156188 17.568073 -21.541748 9 239
2.8364108 18.047771 -21.884485 9 240
2.9319177 18.416307 -22.077972 9 241
2.9750748 18.557793 -21.984749 9 242
3.0152364 18.686316 -21.875338 9 243
2.9914234 18.540176 -21.435812 9 244
2.7334065 17.392242 -19.814564 8 245
3.0720782 18.799875 -21.227564 9 246
3.2584863 19.552437 -21.845087 9 247
3.2107985 19.306423 -21.301327 9 248
3.250809 19.434259 -21.190859 9 249
3.2960975 19.584423 -21.105227 9 250
3.3374341 19.717764 -21.000254 9 251
3.3857384 19.880436 -20.927008 8 252
3.4241199 20.001179 -20.807425 8 253
-1.2081879 0.51021749 0.23261432 9 254
3.4999783 20.238869 -20.564209 8 255
-1.2058587 0.47941965 0.23227878 10 0
-7.4677987 -18.889719 -21.595085 10 1
-7.4362602 -18.760403 -21.714752 9 2
-7.4050202 -18.632011 -21.835445 8 3
-7.2434011 -18.10235 -21.487139 8 4
-7.0813603 -17.572756 -21.127428 8 5
-7.0864496 -17.557167 -21.371643 8 6
-7.0696826 -17.474277 -21.537487 9 7
-6.9936113 -17.209974 -21.481974 9 8
-7.0065026 -17.217579 -21.760183 9 9
-6.8348207 -16.6626 -21.334805 9 10
-7.1496553 -17.588087 -22.7817 10 11
-7.1174235 -17.456617 -22.89901 10 12
-7.0844784 -17.322975 -23.01359 10 13
-7.0552144 -17.200453 -23.142927 10 14
-7.0222983 -17.066862 -23.257898 10 15
-6.926558 -16.744106 -23.116579 11 16
-6.7394261 -16.147472 -22.592997 7 17
-6.5877137 -15.658912 -22.203617 8 18
-6.8614845 -16.445107 -23.596106 3 19
-6.6368036 -15.738922 -22.89398 9 20
-6.7926559 -16.169147 -23.812033 10 21
-6.7653575 -16.052319 -23.951029 10 22
-6.7299185 -15.911229 -24.054985 10 23
-6.6951971 -15.772264 -24.162142 10 24
-6.6575356 -15.624599 -24.256187 9 25
-6.5093493 -15.151202 -23.848337 10 26
-6.4873571 -15.05041 -24.00853 10 27
-6.4578533 -14.927396 -24.135235 9 28
-6.4196563 -14.778849 -24.221817 10 29
-6.376461 -14.615741 -24.284489 10 30
-6.2191238 -14.120306 -23.799429 10 31
-6.1848097 -13.984029 -23.897671 10 32
-6.1472826 -13.838423 -23.980326 10 33
-6.1104584 -13.694871 -24.066282 10 34
-6.1469073 -13.762547 -24.519096 10 35
-5.7085247 -12.464029 -22.575617 9 36
-5.673686 -12.328775 -22.652918 9 37
-6.0432839 -13.349832 -24.824326 10 38
-6.006258 -13.205091 -24.913673 10 39
-5.9690533 -13.059833 -25.002134 10 40
-5.9316707 -12.914062 -25.089701 9 41
-5.8929062 -12.764378 -25.169842 9 42
-5.8803043 -12.688415 -25.393263 9 43
-5.3031487 -11.026451 -22.4904 8 44
-5.8964806 -12.650971 -26.081995 9 45
-5.8525834 -12.485912 -26.140629 9 46
-5.8132191 -12.333537 -26.224722 9 47
-5.0237589 -10.101948 -21.952469 8 48
-5.7544341 -12.083849 -26.510326 10 49
-5.7124977 -11.924164 -26.58079 10 50
-1.2044843 0.48486796 0.22841386 10 51
-1.2044538 0.48498511 0.22835585 10 52
-5.5752907 -11.414236 -26.720753 10 53
-5.5061417 -11.180967 -26.619808 10 54
-5.5036922 -11.128474 -26.935949 10 55
-5.4627175 -10.971498 -27.011696 10 56
-5.1111321 -9.9822702 -25.075741 9 57
-5.0735993 -9.8379612 -25.148855 9 58
-5.2199416 -10.1821 -26.443417 7 59
-5.2361712 -10.177765 -26.894215 10 60
-5.1396675 -9.8752565 -26.586794 9 61
-5.0986285 -9.7194424 -26.652462 9 62
-5.0594325 -9.5684328 -26.73103 9 63
-5.1001825 -9.6248493 -27.376398 5 64
-5.0481095 -9.439435 -27.370867 10 65
-5.0073094 -9.2832365 -27.445498 10 66
-4.9641228 -9.1208935 -27.502855 9 67
-4.928009 -8.9765396 -27.612974 9 68
-4.8863549 -8.817997 -27.682472 9 69
-4.8430114 -8.6551714 -27.739265 9 70
-4.5238814 -7.803648 -25.646711 8 71
-4.357429 -7.3395243 -24.699732 7 72
-4.5802407 -7.8393655 -26.845127 9 73
-4.5389228 -7.6836491 -26.902882 9 74
-4.4986196 -7.5303802 -26.969166 9 75
-4.4575868 -7.3752875 -27.029774 9 76
-4.4164071 -7.2198024 -27.089437 9 77
-4.3739777 -7.0612984 -27.138615 9 78
-4.3317065 -6.9031668 -27.189199 9 79
-4.2893162 -6.7447429 -27.238806 9 80
-4.2454815 -6.5829492 -27.275448 9 81
-4.3037777 -6.6565747 -28.249895 8 82
-4.2588377 -6.4902377 -28.290813 8 83
-4.1889191 -6.2673926 -28.094637 10 84
-4.1444101 -6.1025991 -28.135525 10 85
-4.0990634 -5.9359565 -28.168139 9 86
-3.9714012 -5.5886173 -27.379501 9 87
-3.9293418 -5.4311624 -27.430664 9 88
-3.8829165 -5.2642713 -27.437195 9 89
-3.8401928 -5.1053877 -27.481516 9 90
-3.7520995 -4.8513942 -27.040768 9 91
-3.7526062 -4.7830706 -27.547747 8 92
-3.6662743 -4.5351424 -27.108686 9 93
-3.7007403 -4.532619 -28.017702 9 94
-3.6560152 -4.3685498 -28.047771 9 95
-3.6122501 -4.2063642 -28.089048 9 96
-3.5669374 -4.0411539 -28.112188 8 97
-3.5394063 -3.9094696 -28.352545 9 98
-3.567553 -3.8794737 -29.296818 9 99
-3.5212185 -3.7091885 -29.330236 10 100
-3.47403 -3.5373554 -29.352768 10 101
-3.4273303 -3.3663967 -29.381613 10 102
-3.3801808 -3.1946578 -29.404469 10 103
-3.3311896 -3.0198932 -29.4016 10 104
-3.2839398 -2.8480952 -29.4223 9 105
-3.1838019 -2.5939369 -28.671453 9 106
-3.1383071 -2.4274163 -28.699352 9 107
-3.1203251 -2.3009086 -29.149088 9 108
-3.0334945 -2.0748198 -28.539261 10 109
-2.9880641 -1.9089756 -28.56394 10 110
-2.9414985 -1.7416141 -28.570253 10 111
-2.8889306 -1.5669945 -28.473896 9 112
-2.8430343 -1.4009491 -28.487988 10 113
-2.7968037 -1.2345374 -28.496086 10 114
-2.7512002 -1.0687952 -28.515556 10 115
-2.7209611 -0.91725165 -28.829475 10 116
-2.6748526 -0.74962968 -28.84948 10 117
-2.6280501 -0.58138913 -28.856022 11 118
-2.5829718 -0.41430038 -28.898796 11 119
-2.5363662 -0.2460199 -28.910711 12 120
-2.4974947 -0.081115343 -29.098112 11 121
-2.4492087 0.088759325 -29.078127 14 122
-2.402791 0.25800109 -29.101847 19 123
-2.3553858 0.42753202 -29.102133 22 124
-2.3182654 0.59799671 -29.374989 25 125
-2.2704432 0.76907206 -29.37566 29 126
-2.2139194 0.9363544 -29.124025 28 127
-2.1664281 1.1059532 -29.122581 29 128
-2.1190574 1.2756624 -29.125057 28 129
-2.0714905 1.44524 -29.121502 25 130
-2.0237529 1.6145936 -29.111921 22 131
-1.9762646 1.7842865 -29.111231 18 132
-1.9285474 1.9536197 -29.102028 14 133
-1.8808122 2.1228719 -29.091774 13 134
-1.8229985 2.2634079 -28.613466 10 135
-1.7728255 2.4191215 -28.442341 10 136
-1.7255656 2.5824931 -28.401859 10 137
-1.6925812 2.8124213 -29.211445 10 138
-1.6320662 2.912375 -28.369965 10 139
-1.5962157 3.1504467 -29.164343 10 140
-1.5462753 3.3046186 -28.988087 9 141
-1.5000997 3.4894004 -29.130394 9 142
-1.4525276 3.6649659 -29.169996 10 143
-1.4043841 3.8348923 -29.154064 9 144
-1.3562384 4.005022 -29.139542 9 145
-1.3080617 4.1747737 -29.121489 9 146
-1.2598435 4.3424783 -29.087564 9 147
-1.2116646 4.510241 -29.055077 10 148
-1.1636064 4.6678834 -28.952553 11 149
-1.1157151 4.8292298 -28.881117 10 150
-1.0676088 5.0024419 -28.889898 11 151
-1.0196544 5.1691775 -28.855787 11 152
-0.97173095 5.3356605 -28.820648 12 153
-0.92376971 5.5031533 -28.791836 11 154
-0.87584585 5.6700296 -28.759531 11 155
-0.82727975 5.8461699 -28.777594 10 156
-0.77916986 6.0147696 -28.752941 10 157
-0.7502678 5.9506817 -27.542702 9 158
-0.68139595 6.3688989 -28.785845 10 159
-0.63312244 6.5376306 -28.757915 11 160
-0.58463788 6.7083168 -28.738663 11 161
-0.53645378 6.875762 -28.703743 10 162
-0.48852473 7.0408072 -28.65807 10 163
-0.44051769 7.2066612 -28.616224 9 164
-0.42683724 7.0805516 -27.351057 9 165
-0.34468365 7.5369635 -28.527029 9 166
-0.2966401 7.7031894 -28.486931 9 167
-0.24894075 7.8667078 -28.436155 9 168
-0.20146793 8.0286112 -28.37956 9 169
-0.15380727 8.1920452 -28.32918 9 170
-0.10592385 8.357132 -28.284985 9 171
-0.057975758 8.5226383 -28.242153 9 172
-0.0087517351 8.6968613 -28.229347 9 173
0.039925288 8.8669891 -28.201086 10 174
0.093709797 9.0707121 -28.283663 10 175
0.14206742 9.2377224 -28.241114 10 176
0.16208597 9.2231674 -27.618521 10 177
0.20931546 9.3856754 -27.572592 10 178
0.25627044 9.5464067 -27.520905 10 179
0.30254072 9.702919 -27.456417 10 180
0.34872502 9.8589907 -27.390974 10 181
0.39563802 10.019486 -27.338673 10 182
0.4429293 10.182168 -27.292397 10 183
0.46012241 10.169453 -26.756126 9 184
0.50551075 10.32293 -26.692499 9 185
0.55112594 10.477733 -26.632584 9 186
0.67269683 11.060857 -27.70577 10 187
0.72026747 11.222342 -27.643629 10 188
0.76794094 11.384376 -27.58279 10 189
0.78606462 11.384433 -27.114796 9 190
0.83259261 11.541588 -27.0483 9 191
0.8972916 11.796613 -27.219635 10 192
0.94389957 11.953383 -27.148289 10 193
0.99188811 12.117484 -27.094248 10 194
1.0387301 12.275447 -27.025473 10 195
1.0849262 12.430019 -26.948883 10 196
1.1314145 12.586133 -26.875879 10 197
1.178018 12.742836 -26.804161 10 198
