# .PCD v0.7 - Point Cloud Data file format
VERSION 0.7
FIELDS x y z intensities index
SIZE 4 4 4 4 4
TYPE F F F F F
COUNT 1 1 1 1 1
WIDTH 1253
HEIGHT 1
VIEWPOINT 0 0 0 1 0 0 0
POINTS 1253
DATA ascii
-2.5612986 -1.4378288 -28.197708 9 113
-2.5157261 -1.2728555 -28.203268 8 114
-2.4499984 -1.0873176 -27.833027 8 115
-2.4053459 -0.92493159 -27.843838 9 116
-2.444885 -0.83482915 -29.522745 9 117
-2.3972278 -0.66251272 -29.527092 10 118
-2.3498867 -0.49045026 -29.537823 10 119
-2.2897768 -0.3110961 -29.26907 12 120
-2.2258997 -0.1327967 -28.894705 12 121
-2.1792338 0.035684053 -28.897144 16 122
-2.1328361 0.20408693 -28.905998 19 123
-2.0859895 0.37258449 -28.903856 23 124
-2.0393984 0.54104942 -28.908129 27 125
-1.9921328 0.70938826 -28.893944 32 126
-1.9452196 0.87768972 -28.88866 32 127
-1.8984499 1.0460194 -28.887304 32 128
-1.8517234 1.2143927 -28.887394 29 129
-1.8048826 1.3826883 -28.883947 27 130
-1.7579411 1.5508569 -28.876966 23 131
-1.713932 1.7238128 -28.980818 17 132
-1.6635648 1.8861285 -28.842478 15 133
-1.6161894 2.0530183 -28.814976 12 134
-1.5694971 2.2214327 -28.81625 11 135
-1.4996883 2.3130376 -27.661747 10 136
-1.4881665 2.6065493 -29.480927 11 137
-1.4401976 2.7787457 -29.476297 11 138
-1.3921118 2.9505281 -29.465637 11 139
-1.3189213 2.9557476 -27.599554 11 140
-1.2737956 3.1167002 -27.587708 10 141
-1.2286755 3.2778368 -27.577337 10 142
-1.1835076 3.4386637 -27.563486 10 143
-1.1383228 3.599412 -27.548634 9 144
-1.0930827 3.7591941 -27.525364 10 145
-1.0532758 4.0966907 -28.926346 10 146
-1.0057368 4.2643375 -28.900055 11 147
-0.95821983 4.4338107 -28.88752 11 148
-0.91068071 4.601851 -28.864067 10 149
-0.86313605 4.7701073 -28.842031 10 150
-0.8138811 4.9985666 -29.210112 9 151
-0.76565856 5.1696067 -29.190538 9 152
-0.71760589 5.3364849 -29.145338 9 153
-0.67695665 5.367125 -28.309198 9 154
-0.63030249 5.5291333 -28.265219 9 155
-0.58352286 5.6934905 -28.234932 9 156
-0.52755475 5.9802394 -28.849194 9 157
-0.47966385 6.1488924 -28.821012 9 158
-0.4317736 6.3173966 -28.791777 9 159
-0.38421395 6.4822016 -28.744432 9 160
-0.34496331 6.562314 -28.301815 9 161
-0.29806566 6.7251973 -28.257816 9 162
-0.25103861 6.8894162 -28.220098 10 163
-0.20397332 7.053967 -28.183779 10 164
-0.18966636 6.9363742 -26.96273 9 165
-0.14445533 7.0948648 -26.930893 9 166
-0.099323876 7.2525964 -26.895647 9 167
-0.0088082021 7.7656703 -28.24514 10 168
0.038424183 7.9297338 -28.200954 10 169
0.085447639 8.0922375 -28.150942 11 170
0.12678042 8.2134981 -27.95122 10 171
0.17335436 8.373806 -27.897053 10 172
0.22035895 8.5371857 -27.853855 9 173
0.26764613 8.7024317 -27.816788 9 174
0.32849988 8.9583206 -28.081184 10 175
0.33760545 8.8706808 -27.211666 9 176
0.3834219 9.0286846 -27.160566 9 177
0.47336647 9.4676123 -27.989653 10 178
0.52006793 9.6269865 -27.925421 10 179
0.56731856 9.7898378 -27.872015 10 180
0.61400026 9.949193 -27.808168 10 181
0.66087151 10.109748 -27.748043 10 182
0.70726192 10.267457 -27.67989 10 183
0.74074221 10.349345 -27.400185 10 184
0.78688854 10.506618 -27.335234 9 185
0.84422904 10.728294 -27.444035 9 186
0.89189988 10.893637 -27.397673 9 187
0.93908566 11.056119 -27.34329 9 188
0.98558658 11.214708 -27.278616 9 189
1.0321846 11.373831 -27.215261 9 190
1.0783796 11.530725 -27.146307 9 191
1.1043426 11.577682 -26.809956 10 192
1.1540098 11.754209 -26.792418 10 193
1.1798164 11.80281 -26.472019 9 194
1.2541845 12.110729 -26.760502 9 195
1.3207951 12.375502 -26.939299 9 196
1.362108 12.50641 -26.809731 9 197
1.4021611 12.63112 -26.668194 9 198
1.4382852 12.73597 -26.485483 9 199
1.4864362 12.903102 -26.439558 9 200
1.5289718 13.041461 -26.331982 9 201
1.3879184 12.25068 -24.29225 9 202
1.6197208 13.347269 -26.17915 9 203
1.6815646 13.582556 -26.269072 9 204
1.6597887 13.40089 -25.524027 9 205
1.7957817 14.003501 -26.336975 10 206
1.7994529 13.950024 -25.855434 9 207
1.8850929 14.300035 -26.154593 10 208
1.8876492 14.243243 -25.678116 9 209
1.7944055 13.723997 -24.355022 8 210
1.7706901 13.546592 -23.691191 7 211
1.8788905 14.005737 -24.191376 9 212
1.9587932 14.326674 -24.429876 9 213
1.9619402 14.280629 -24.015617 10 214
2.0806029 14.783733 -24.561005 10 215
-0.93989718 0.46658018 0.22869876 13 216
2.0813203 14.668659 -23.711618 10 217
2.2556596 15.428089 -24.659222 10 218
2.3512402 15.815347 -24.968697 10 219
2.394969 15.959837 -24.874346 10 220
-0.93973184 0.46712703 0.22905108 12 221
-0.93969905 0.46723515 0.22912359 12 222
2.4943421 16.247091 -24.363249 10 223
2.5360179 16.382662 -24.257898 8 224
2.5814109 16.535229 -24.178568 11 225
2.5351212 16.270733 -23.473211 9 226
2.6412084 16.699636 -23.810032 10 227
2.6832726 16.83736 -23.710133 10 228
2.7423739 17.051821 -23.721046 10 229
2.8393011 17.43565 -23.970743 10 230
2.8811443 17.571386 -23.862251 10 231
2.4638636 15.657937 -20.902891 9 232
2.5193169 15.860262 -20.92108 9 233
2.556571 15.981359 -20.826271 9 234
2.595366 16.109274 -20.740595 9 235
2.5822036 16.007874 -20.350946 8 236
2.6178961 16.122671 -20.251278 8 237
2.6517279 16.229319 -20.141161 8 238
2.6881602 16.347401 -20.045965 8 239
3.27669 18.87602 -22.991884 10 240
3.3175614 19.007303 -22.876503 10 241
3.3604178 19.147213 -22.771786 10 242
3.4013498 19.278744 -22.656631 10 243
3.4443114 19.419048 -22.552015 9 244
3.4856851 19.552458 -22.438931 9 245
3.525059 19.677246 -22.315622 9 246
3.1476247 18.012753 -20.117043 8 247
3.1870792 18.141975 -20.023655 9 248
3.2531071 18.384705 -20.058464 9 249
-0.93882269 0.47007501 0.23141769 11 250
3.3486617 18.713182 -19.944281 9 251
3.7019603 20.17432 -21.302622 9 252
3.7821445 20.47262 -21.370388 7 253
3.7917123 20.471613 -21.114241 8 254
3.8595212 20.716862 -21.12093 9 255
-6.9365511 -18.305857 -20.600531 8 0
-6.9699569 -18.379629 -20.93819 9 1
-6.8724957 -18.045204 -20.816448 9 2
-6.8673964 -17.998638 -21.02063 8 3
-6.8368058 -17.872692 -21.134373 7 4
-6.8085494 -17.753984 -21.256626 9 5
-6.7815766 -17.639223 -21.383793 9 6
-6.7533522 -17.520557 -21.506567 9 7
-6.7238913 -17.398052 -21.624874 9 8
-6.7792835 -17.536615 -22.067154 9 9
-6.7489123 -17.410805 -22.185646 9 10
-6.7188077 -17.285791 -22.305307 9 11
-6.688962 -17.161551 -22.426161 9 12
-6.6452589 -16.994953 -22.492065 9 13
-6.6121211 -16.860695 -22.599539 9 14
-6.5787859 -16.725838 -22.706173 9 15
-6.6169801 -16.808195 -23.106644 9 16
-5.6625476 -13.881439 -19.392002 8 17
-5.6724596 -13.882572 -19.642534 8 18
-5.531455 -13.427716 -19.256485 7 19
-6.2798848 -15.653306 -22.67248 9 20
-5.9660239 -14.676087 -21.557911 8 21
-6.3031106 -15.65488 -23.267363 9 22
-6.2675514 -15.513609 -23.36241 9 23
-6.3692427 -15.782225 -24.071239 9 24
-6.2913022 -15.513791 -23.981064 9 25
-6.2948923 -15.451649 -24.524897 10 27
-6.2582059 -15.305929 -24.622742 10 28
-6.2204537 -15.157069 -24.715525 10 29
-6.1825309 -15.007723 -24.807362 9 30
-6.1483426 -14.869365 -24.917093 9 31
-6.1100531 -14.718951 -25.007103 8 32
-6.0750179 -14.578066 -25.113037 9 33
-6.037219 -14.42909 -25.205433 7 34
-5.9979787 -14.275928 -25.290522 6 35
-5.9619288 -14.132043 -25.391699 9 36
-5.817709 -13.675286 -24.93548 9 37
-5.8855038 -13.831711 -25.572132 9 38
-5.8472328 -13.681379 -25.662027 9 39
-5.8091917 -13.531705 -25.753157 10 40
-5.7717738 -13.383804 -25.847706 10 41
-5.7337632 -13.234192 -25.939182 10 42
-5.6939836 -13.079536 -26.021011 10 43
-5.656795 -12.932235 -26.11721 10 44
-5.6178465 -12.779925 -26.203737 10 45
-5.3462296 -11.972574 -24.961493 9 46
-5.3093014 -11.828068 -25.044231 9 47
-5.2718229 -11.682008 -25.123871 9 48
-5.2353106 -11.538631 -25.209291 9 49
-5.2601504 -11.565617 -25.662239 9 50
-5.2256804 -11.427217 -25.764925 10 51
-5.1876802 -11.278992 -25.846622 10 52
-5.1520467 -11.137244 -25.943188 9 53
-5.1474648 -11.080388 -26.235409 10 54
-5.0751381 -10.838133 -26.102165 10 55
-5.1668978 -11.042042 -27.020426 9 56
-5.0516768 -10.683417 -26.610392 10 57
-5.0110631 -10.527337 -26.680767 10 58
-4.9726982 -10.377283 -26.766195 10 59
-4.9324465 -10.222136 -26.839266 10 60
-4.8947201 -10.073679 -26.929787 10 61
-4.8859835 -10.001804 -27.222342 10 62
-4.8445706 -9.8431053 -27.290821 10 63
-4.6932173 -9.3964453 -26.575272 9 64
-4.6514177 -9.2381573 -26.630682 9 65
-4.4112201 -8.5655231 -25.232794 9 66
-4.3720412 -8.4167595 -25.287617 9 67
-4.3370948 -8.278861 -25.374241 9 68
-4.2985554 -8.1316795 -25.434307 9 69
-4.259274 -7.9825969 -25.488775 8 70
-4.4780898 -8.4841175 -27.567963 10 71
-4.4357629 -8.3234196 -27.627069 10 72
-4.3935962 -8.1631079 -27.687548 10 73
-4.3518686 -8.0038624 -27.751778 11 74
-4.309989 -7.844203 -27.815035 11 75
-4.2676773 -7.6834493 -27.874949 10 76
-4.2318988 -7.5384879 -27.991001 10 77
-4.0769677 -7.1067739 -27.073792 9 78
-4.0356507 -6.9502368 -27.129129 9 79
-4.053494 -6.9336953 -27.71471 9 80
-4.0113544 -6.774003 -27.771418 9 81
-3.9685552 -6.6127315 -27.822351 9 82
-3.9476457 -6.5019326 -28.079092 8 83
-3.9050369 -6.3405786 -28.135588 8 84
-3.8612902 -6.1765919 -28.181456 9 85
-3.8159621 -6.0090466 -28.211815 10 86
-3.7669528 -5.8333907 -28.204828 10 87
-3.7229741 -5.6690011 -28.247555 10 88
-3.6786544 -5.5038576 -28.28684 10 89
-3.6330876 -5.3360376 -28.312958 10 90
-3.5888171 -5.171021 -28.352608 10 91
-3.5442214 -5.0053096 -28.388803 10 92
-3.5008419 -4.8421035 -28.438601 10 93
-3.3352582 -4.4304171 -27.098261 9 94
-3.4077711 -4.5028048 -28.466774 10 95
-3.3620207 -4.3348556 -28.489035 10 96
-3.3160107 -4.1664543 -28.507792 10 97
-3.2482386 -3.9566736 -28.258213 9 98
-3.2853928 -3.9446261 -29.315327 9 99
-3.2389901 -3.7734492 -29.343941 10 100
-3.1403351 -3.508498 -28.687828 9 101
-3.0944757 -3.3403366 -28.70878 9 102
-3.0487342 -3.1724041 -28.731152 9 103
-3.0032763 -3.0049579 -28.75741 9 104
-2.9573922 -2.8367994 -28.777697 9 105
-2.9148083 -2.6738608 -28.846323 9 106
-2.8693755 -2.5062482 -28.874435 9 107
-2.8140616 -2.3239939 -28.750673 9 108
-2.7655518 -2.1524243 -28.727129 8 109
-2.7197042 -1.9847882 -28.744583 8 110
-2.6969917 -1.8473185 -29.147446 9 111
-2.6506946 -1.6776373 -29.167982 10 112
-2.6038973 -1.5073261 -29.180023 10 113
-2.5575955 -1.337577 -29.20093 11 114
-2.5113447 -1.167814 -29.223267 12 115
-2.4651346 -0.99800014 -29.24704 12 116
-2.41833 -0.82755923 -29.259827 12 117
-2.3715849 -0.6571371 -29.274038 13 118
-2.3252411 -0.48693419 -29.297136 12 119
-2.27846 -0.31633073 -29.311722 13 120
-2.2331364 -0.14631915 -29.36006 12 121
-2.1841571 0.02539181 -29.325285 15 122
-2.1254349 0.19875966 -29.048187 19 123
-2.0786622 0.36805719 -29.05353 25 124
-2.0319338 0.53739369 -29.06031 28 125
-1.9851499 0.70678467 -29.066038 32 126
-1.9379708 0.87608075 -29.060762 31 127
-1.8909343 1.0454046 -29.059412 31 128
-1.8314849 1.2043759 -28.659052 30 129
-1.7986674 1.3860348 -29.118212 26 130
-1.7514287 1.5556502 -29.113693 21 131
-1.6900419 1.7019707 -28.571127 16 132
-1.641525 1.8642509 -28.48011 13 133
-1.5965242 2.0332778 -28.529747 11 134
-1.5742522 2.2677183 -29.646494 11 135
-1.5259277 2.4401512 -29.634039 11 136
-1.4777256 2.6130226 -29.627954 10 137
-1.394794 2.6231396 -27.536436 10 138
-1.370068 2.8964901 -28.870956 11 139
-1.3234645 3.0683372 -28.899187 10 140
-1.2566748 3.0784528 -27.229013 9 141
-1.2120966 3.2370174 -27.213898 9 142
-1.1731284 3.4657776 -27.85367 9 143
-1.1274658 3.6279211 -27.836176 9 144
-1.0817963 3.7899506 -27.817669 9 145
-1.0371453 3.9863651 -28.07481 8 146
-0.99097508 4.1471663 -28.03434 8 147
-0.94487482 4.3099632 -28.010149 9 148
-0.89879102 4.4715405 -27.977556 9 149
-0.85271275 4.6343198 -27.953814 9 150
-0.80421185 4.8807535 -28.472765 9 151
-0.75726694 5.0459685 -28.444042 9 152
-0.7102983 5.2118058 -28.419207 10 153
-0.66330659 5.3779221 -28.39579 10 154
-0.63546801 5.2353287 -26.636259 9 155
-0.59090698 5.3970466 -26.644434 9 156
-0.53535676 5.7028809 -27.40963 9 157
-0.50212663 5.7130852 -26.616121 9 158
-0.43950009 6.0785899 -27.628811 9 159
-0.39363319 6.2392268 -27.595066 9 160
-0.3293682 6.5869889 -28.436472 9 161
-0.28226346 6.7506485 -28.392311 10 162
-0.23508756 6.9150958 -28.351997 10 163
-0.18807109 7.0781584 -28.305815 10 164
-0.14110538 7.2408991 -28.258625 10 165
-0.098890811 7.3643537 -28.050898 10 166
-0.04680666 7.5696216 -28.178141 10 167
-0.013595664 7.6251469 -27.713402 10 168
0.033156767 7.7893095 -27.682081 10 169
0.0793043 7.9488273 -27.632904 9 170
0.13333048 8.165411 -27.791412 10 171
0.17971841 8.3254747 -27.73992 10 172
0.22634782 8.4872627 -27.694609 10 173
0.28016078 8.6978607 -27.815329 10 174
0.32699937 8.8600826 -27.767696 9 175
0.32216403 8.6832981 -26.613417 9 176
0.36880741 8.8497353 -26.601414 9 177
0.4139843 9.0064831 -26.557514 9 178
0.45901367 9.1622362 -26.510256 10 179
0.50438958 9.3200798 -26.469097 9 180
0.54975337 9.4777412 -26.426935 9 181
0.59456438 9.6319742 -26.374365 9 182
0.6393283 9.7859039 -26.320829 9 183
0.69502789 10.003985 -26.446508 10 184
0.74146163 10.166836 -26.414001 10 185
0.78731942 10.326177 -26.371105 10 186
0.88227648 10.764366 -27.066339 9 187
0.9285714 10.923163 -27.008091 10 188
0.97465295 11.080732 -26.946529 10 189
1.0366238 11.326019 -27.105556 9 190
1.0829562 11.484146 -27.041483 9 191
1.0662626 11.300216 -26.144978 8 192
1.1101696 11.448035 -26.069555 7 193
1.2464509 12.089215 -27.156399 8 194
1.1984113 11.746103 -25.925138 9 195
1.1897364 11.617434 -25.219591 8 196
1.228689 11.741501 -25.101446 8 197
1.2806019 11.9331 -25.134148 9 198
1.3560934 12.245577 -25.426924 9 199
1.4003804 12.396147 -25.361506 9 200
1.5772961 13.221411 -26.721022 9 201
1.4670999 12.586652 -24.999781 9 202
1.6680351 13.525161 -26.552572 10 203
1.7135671 13.677889 -26.470285 10 204
1.7621303 13.845693 -26.418066 10 205
1.807736 13.998717 -26.336004 10 206
1.718547 13.488922 -24.971552 9 207
1.8824213 14.223907 -26.017576 10 208
1.9229267 14.352486 -25.891579 10 209
1.9685268 14.505956 -25.812885 10 210
2.0113342 14.645925 -25.709305 10 211
2.0564778 14.797191 -25.62657 6 212
1.9740496 14.338968 -24.45919 10 213
2.0292499 14.540689 -24.479389 10 214
2.0559564 14.606943 -24.262154 10 215
2.1170938 14.836214 -24.326933 10 216
2.1603701 14.980864 -24.24501 10 217
2.2021956 15.118692 -24.151558 10 218
2.2441697 15.257232 -24.059372 10 219
2.2851834 15.39132 -23.960014 10 220
2.328603 15.536573 -23.878725 10 221
2.3707933 15.676113 -23.788134 9 222
2.4128728 15.815131 -23.696661 9 223
2.4557223 15.957662 -23.610533 9 224
2.4981813 16.098372 -23.521418 10 225
2.6795497 16.870415 -24.379213 10 226
2.6718912 16.781954 -23.93837 10 227
2.7095292 16.899508 -23.807365 10 228
2.7503633 17.03158 -23.69809 10 229
2.7948277 17.179976 -23.612286 10 230
2.7194471 16.79211 -22.770561 10 231
2.7159314 16.727926 -22.39744 10 232
2.776938 16.951864 -22.426996 10 233
2.8362882 17.167913 -22.442665 10 234
2.9209256 17.495312 -22.604773 10 235
2.9992847 17.793928 -22.7223 10 236
3.0176976 17.827963 -22.488186 10 237
3.0705919 18.013775 -22.453358 10 238
3.1211667 18.189148 -22.403446 10 239
3.1753106 18.379858 -22.371475 10 240
3.2540193 18.677189 -22.47056 10 241
3.2861216 18.771307 -22.314312 10 242
3.3673711 19.078485 -22.418398 10 243
3.4138947 19.234747 -22.335829 10 244
-0.92902297 0.46820214 0.23065758 10 245
3.476758 19.41707 -22.015495 11 246
-0.92896259 0.46839526 0.23083405 11 247
3.5527132 19.656113 -21.764259 9 248
3.590977 19.776901 -21.640354 9 249
3.6255982 19.882185 -21.499218 9 250
3.6642416 20.00466 -21.377604 9 251
3.7050593 20.136366 -21.266119 9 252
3.7358873 20.225727 -21.108667 9 253
3.7715847 20.335806 -20.974173 9 254
3.8110752 20.461931 -20.856894 8 255
-7.0593724 -18.718479 -21.055075 7 0
-7.0573931 -18.681219 -21.273392 9 1
-7.0254993 -18.550524 -21.387739 9 2
-6.9944291 -18.422403 -21.504932 9 3
-6.9631462 -18.293629 -21.621325 9 4
-6.9291101 -18.156326 -21.727613 9 5
-6.9055085 -18.051329 -21.872253 9 6
-6.9671226 -18.209345 -22.335873 9 7
-0.92708772 0.43893611 0.23059657 9 8
-0.92706347 0.43903548 0.23050959 10 9
-6.8734922 -17.822067 -22.697643 10 10
-6.8195152 -17.623158 -22.729738 10 11
-6.6632686 -17.111578 -22.357391 10 12
-6.6303606 -16.978079 -22.46559 10 13
-6.5962863 -16.841028 -22.569059 9 14
-6.5629864 -16.706348 -22.675562 9 15
-6.5294895 -16.571077 -22.781225 9 16
-6.4858131 -16.404963 -22.844599 9 17
-6.4510407 -16.265903 -22.944416 9 18
-6.4184361 -16.1334 -23.053299 9 19
-6.3851562 -15.998852 -23.159384 9 20
-6.5103431 -16.340549 -23.951809 10 21
-6.4060469 -15.991992 -23.754519 10 22
-6.3374138 -15.715488 -23.966228 11 24
-6.3034706 -15.578333 -24.073889 11 25
-6.2684174 -15.437858 -24.176619 11 26
-6.2353973 -15.303405 -24.288792 9 27
-6.1888556 -15.128906 -24.338116 10 28
-6.0934138 -14.810214 -24.155588 10 29
-5.8132763 -13.948504 -23.085768 9 30
-6.0598259 -14.637424 -24.530752 10 31
-6.0095978 -14.45264 -24.558353 10 32
-5.9730763 -14.30812 -24.65206 10 33
-5.9818225 -14.29556 -24.97142 10 34
-5.6431408 -13.272161 -23.544737 9 35
-5.6092434 -13.137231 -23.637459 9 36
-5.7936249 -13.633512 -24.85523 10 37
-5.7337818 -13.421968 -24.825718 10 38
-5.7231932 -13.352431 -25.053133 10 39
-5.6418166 -13.079473 -24.906433 10 40
-5.5275507 -12.713215 -24.577116 10 41
-5.4902239 -12.567586 -24.657831 10 42
-5.5367122 -12.660158 -25.200775 10 43
-5.4810967 -12.461986 -25.184744 9 44
-5.440804 -12.307403 -25.252913 10 45
-5.4030929 -12.160127 -25.33552 10 46
-5.362916 -12.005925 -25.40395 10 47
-5.327549 -11.865207 -25.500238 10 48
-5.4270787 -12.100363 -26.394831 10 49
-5.3874798 -11.946452 -26.476229 11 50
-5.348453 -11.794118 -26.561159 9 51
-5.232327 -11.429194 -26.173599 9 52
-5.1795001 -11.239697 -26.167515 9 53
-5.098362 -10.973005 -25.981627 9 54
-5.0531111 -10.805008 -26.017538 9 55
-5.0124059 -10.649474 -26.081825 10 56
-4.9729714 -10.497396 -26.154238 9 57
-4.9320011 -10.341175 -26.216585 9 58
-4.8991246 -10.206673 -26.332869 10 59
-4.8547764 -10.041383 -26.372732 10 60
-4.8130531 -9.8831635 -26.429903 9 61
-4.7725463 -9.7281914 -26.495289 8 62
-4.7319012 -9.572854 -26.559719 9 63
-4.6898193 -9.4137526 -26.613918 9 64
-4.4782667 -8.8130531 -25.443399 8 65
-4.7315173 -9.4219418 -27.643248 9 66
-4.6971378 -9.2810678 -27.76647 9 67
-4.5487142 -8.8474607 -27.033356 9 68
-4.5060949 -8.6867342 -27.085306 9 69
-4.5580812 -8.7659273 -27.868736 9 70
-4.5156279 -8.6042423 -27.931948 9 71
-4.4724383 -8.4406929 -27.989456 9 72
-4.427072 -8.2717218 -28.029413 9 73
-4.1376123 -7.4990859 -26.070747 9 74
-4.0977368 -7.3477812 -26.126047 9 75
-4.0577326 -7.1961408 -26.180418 9 76
-4.0167665 -7.04215 -26.226719 9 77
-4.1629133 -7.3380499 -27.898241 10 78
-4.1192336 -7.1741486 -27.945488 10 79
-4.0762472 -7.0118985 -27.998894 9 80
-4.0320797 -6.8468509 -28.041716 9 81
-4.0415821 -6.8067412 -28.580456 10 82
-3.995429 -6.6360426 -28.612392 10 83
-3.9507241 -6.4687166 -28.657698 10 84
-3.9056618 -6.3005795 -28.699554 10 85
-3.7735865 -5.9374204 -27.882801 9 86
-3.7291763 -5.7727613 -27.916473 9 87
-3.6837387 -5.6058803 -27.939426 9 88
-3.6060255 -5.3690548 -27.626537 8 89
-3.5633154 -5.2090039 -27.671213 8 90
-3.5191321 -5.045794 -27.700312 8 91
-3.4748783 -4.8824716 -27.728388 9 92
-3.4316475 -4.721293 -27.767633 8 93
-3.3874533 -4.5581279 -27.79612 9 94
-3.26689 -4.2420449 -26.938803 8 95
-3.2229006 -4.0817237 -26.95203 8 96
-3.3529434 -4.2588887 -29.06349 9 97
-3.3066037 -4.0883851 -29.089138 10 98
-3.2586305 -3.9148531 -29.094088 10 99
-3.2108421 -3.7417991 -29.100389 10 100
-3.1639793 -3.5705352 -29.117891 10 101
-3.1176186 -3.4002092 -29.141708 10 102
-3.0499508 -3.1933756 -28.873768 9 103
-3.0039072 -3.024518 -28.895224 9 104
-2.9576249 -2.8552847 -28.913162 10 105
-2.911453 -2.686255 -28.932516 9 106
-2.865382 -2.5173924 -28.953291 9 107
-2.8187597 -2.3477123 -28.965595 9 108
-2.7720928 -2.1780171 -28.976843 9 109
-2.7255356 -2.0085223 -28.989508 8 110
-2.6665828 -1.8228849 -28.795507 9 111
-2.6250346 -1.6604559 -28.887745 9 112
-2.5737414 -1.4859776 -28.81287 10 113
-2.5436268 -1.3355802 -29.116444 10 114
-2.4973686 -1.1661724 -29.136278 11 115
-2.4514172 -0.99698746 -29.16251 11 116
-2.405864 -0.82801026 -29.197634 11 117
-2.3584821 -0.65738857 -29.196932 12 118
-2.3104944 -0.48644528 -29.182741 13 119
-2.2637739 -0.31644118 -29.194828 13 120
-2.2157872 -0.14579576 -29.178507 12 121
-2.1572962 0.028233433 -28.912445 15 122
-2.1105697 0.19678651 -28.913864 19 123
-2.0627375 0.36540207 -28.886868 21 124
-2.0161738 0.53376573 -28.891165 25 125
-1.9548168 0.69864333 -28.483961 31 126
-1.9084771 0.86453849 -28.476217 29 127
-1.8623701 1.0304828 -28.474905 29 128
-1.8164614 1.1965994 -28.480022 28 129
-1.7702034 1.3624605 -28.474161 24 130
-1.7239227 1.5282602 -28.467268 19 131
-1.686841 1.7091486 -28.809885 16 132
-1.6397716 1.8764666 -28.793396 12 133
-1.6110104 2.0870659 -29.568544 10 134
-1.563583 2.2611823 -29.591978 11 135
-1.5106492 2.4176338 -29.343636 11 136
-1.4619557 2.5850618 -29.285543 11 137
-1.4142218 2.7557399 -29.276056 10 138
-1.3663875 2.9259479 -29.260546 10 139
-1.3030678 2.9927182 -28.091188 10 140
-1.2734773 3.2884736 -29.461748 9 141
-1.2251668 3.4589171 -29.435509 9 142
-1.1769837 3.6304638 -29.420591 9 143
-1.1250682 3.7415807 -28.870329 9 144
-1.0777347 3.9101615 -28.856098 9 145
-1.0303979 4.0792909 -28.845758 10 146
-0.98378414 4.296083 -29.199673 10 147
-0.93577689 4.4659352 -29.177065 11 148
-0.8877604 4.6366954 -29.160797 11 149
-0.83975565 4.8055668 -29.131147 11 150
-0.79174811 4.9749832 -29.105373 11 151
-0.74373025 5.1446304 -29.081001 11 152
-0.69576776 5.3129148 -29.048204 10 153
-0.64743799 5.4881349 -29.056072 10 154
-0.60010678 5.6457353 -28.962334 10 155
-0.57316458 5.5104866 -27.27886 9 156
-0.52790207 5.6700716 -27.253515 10 157
-0.48224664 5.8343058 -27.2516 10 158
-0.41904283 6.1979818 -28.236734 9 159
-0.3721202 6.3626256 -28.204704 10 160
-0.32546529 6.5244842 -28.159477 9 161
-0.27798104 6.6945601 -28.152147 9 162
-0.23172571 6.8526874 -28.090317 9 163
-0.18500654 7.0153651 -28.049351 9 164
-0.13959858 7.1668315 -27.96138 9 165
-0.10747879 7.2089195 -27.427757 9 166
-0.017541878 7.7228651 -28.803822 9 167
0.030254751 7.8876872 -28.750263 8 168
0.078401066 8.0552902 -28.707724 8 169
0.089468554 7.9482431 -27.643072 9 170
0.13595331 8.1101303 -27.602501 9 171
0.18270142 8.273818 -27.568098 9 172
0.22964802 8.4387369 -27.537436 9 173
0.30640829 8.8061047 -28.195374 9 174
0.35420913 8.9726543 -28.154226 9 175
0.40188482 9.138279 -28.109646 10 176
0.44953695 9.3036757 -28.064022 10 177
0.5056116 9.5224848 -28.185541 11 178
0.55287707 9.6845236 -28.125685 11 179
0.5995664 9.8430462 -28.055387 11 180
0.64706951 10.006643 -28.000616 10 181
0.69452423 10.169925 -27.94482 10 182
0.74137378 10.329591 -27.878622 10 183
0.77258909 10.397591 -27.556385 10 184
0.81986791 10.560865 -27.505131 10 185
0.86636335 10.719566 -27.441189 10 186
0.91216874 10.874363 -27.366966 10 187
0.95834398 11.031322 -27.298765 10 188
1.004761 11.189656 -27.234221 10 189
1.0519392 11.352191 -27.180229 10 190
1.1164317 11.609378 -27.360062 10 191
1.154026 11.718946 -27.172489 10 192
-0.92098433 0.46142635 0.22697783 12 193
1.2652104 12.132585 -27.26696 10 194
-0.92091459 0.46166298 0.22708382 10 195
-0.92087978 0.46178082 0.22713791 10 196
1.4043925 12.603475 -27.045307 9 197
1.4117064 12.557789 -26.523294 10 198
1.4570097 12.710486 -26.446976 10 199
1.5048826 12.876346 -26.398941 9 200
1.5437877 12.996436 -26.253389 10 201
1.5881044 13.144278 -26.167646 9 202
1.6329491 13.294822 -26.087692 9 203
1.6776944 13.444879 -26.006809 9 204
1.7223388 13.594443 -25.924994 9 205
1.7698405 13.758139 -25.870968 8 206
1.8152535 13.911421 -25.796022 9 207
1.6340503 12.95637 -23.606426 8 208
1.8819493 14.100447 -25.424419 9 209
1.9539444 14.382906 -25.591505 7 210
1.881749 13.969117 -24.477997 8 211
1.851458 13.761543 -23.764713 8 212
1.8968662 13.918648 -23.717588 9 213
2.1092842 14.869732 -25.063469 9 214
2.1532102 15.016083 -24.977119 9 215
2.1972983 15.163185 -24.891985 9 216
2.2415583 15.311072 -24.808046 10 217
2.2835469 15.448303 -24.706194 10 218
2.3596275 15.744414 -24.865536 10 219
2.362869 15.701296 -24.468462 10 220
2.3487804 15.579435 -23.953253 10 221
2.4267104 15.88343 -24.121435 10 222
2.467922 16.017681 -24.018276 9 223
2.51016 16.156662 -23.922604 11 224
2.6276667 16.6388 -24.348372 11 225
2.6702664 16.778271 -24.246796 11 226
2.7115092 16.911604 -24.136169 10 227
2.6846583 16.737574 -23.57613 10 228
2.7382123 16.927357 -23.553127 9 229
2.8111742 17.203878 -23.651955 9 230
2.8339159 17.254927 -23.428101 9 231
2.8764448 17.394722 -23.330725 9 232
2.8829448 17.374287 -23.012938 9 233
-0.91961485 0.4659825 0.22971795 10 234
3.054692 18.037926 -23.337776 10 235
2.9884422 17.697353 -22.599579 10 236
3.0907335 18.100475 -22.850021 10 237
3.2075567 18.565874 -23.172346 10 238
3.2496848 18.702806 -23.064684 10 239
3.0001552 17.567253 -21.351025 10 240
3.3413246 19.008747 -22.889023 11 241
3.2010732 18.353819 -21.805012 9 242
3.4229593 19.270954 -22.657675 10 243
3.3274226 18.813005 -21.833582 9 244
3.434809 19.232401 -22.068933 9 245
3.5343764 19.616812 -22.254906 10 246
3.408658 19.033581 -21.310984 10 247
3.627821 19.929741 -22.082767 10 248
3.6243503 19.871653 -21.752457 10 249
3.6637912 19.997238 -21.632736 10 250
3.7007403 20.112226 -21.501284 10 251
3.7382669 20.229704 -21.372801 10 252
3.6632211 19.870544 -20.729565 7 253
3.6998305 19.98518 -20.604427 9 254
3.8637068 20.636517 -21.04561 9 255
-7.0963688 -18.871361 -21.220615 9 0
-7.0671897 -18.749014 -21.345261 10 1
-6.9412684 -18.325397 -21.127045 8 2
-7.0055709 -18.494144 -21.583143 9 3
-6.9358621 -18.245983 -21.561251 9 4
-7.0208545 -18.477551 -22.10236 9 5
-6.9097528 -18.101355 -21.92746 9 6
-6.8339734 -17.835077 -21.87834 9 7
-6.8339992 -17.802927 -22.11194 9 8
-6.8026214 -17.673807 -22.228243 9 9
-6.6913447 -17.299303 -22.036537 11 10
-6.6599731 -17.170637 -22.149727 9 11
-6.6274109 -17.038322 -22.258276 9 12
-6.5182414 -16.672045 -22.061956 9 13
-6.4852333 -16.538822 -22.16544 9 14
-6.4525175 -16.4065 -22.270035 9 15
-6.4224787 -16.282309 -22.385592 9 16
-6.3922133 -16.157402 -22.500425 9 17
-6.3598328 -16.026068 -22.606604 9 18
-6.3234925 -15.882777 -22.696049 9 19
-6.2944679 -15.761559 -22.816549 10 20
-6.3672671 -15.946326 -23.378403 10 21
-6.3560133 -15.877643 -23.58222 10 22
-6.3177013 -15.727681 -23.668512 10 23
-6.283339 -15.589561 -23.772121 10 24
-6.2492299 -15.452188 -23.876934 10 25
-6.215816 -15.316868 -23.985016 10 26
-6.1812949 -15.178239 -24.088173 10 27
-5.9701862 -14.517076 -23.367064 9 28
-5.9619989 -14.457394 -23.585733 9 29
-5.9165497 -14.287601 -23.629364 10 30
-5.8745389 -14.128061 -23.688494 10 31
-5.8337412 -13.972177 -23.752813 10 32
-5.8356342 -13.941152 -24.026997 9 33
-6.0139365 -14.423856 -25.18457 9 34
-5.9797812 -14.285526 -25.295109 9 35
-5.9424653 -14.137977 -25.389927 9 36
-0.91543794 0.44003135 0.22827208 10 37
-5.7291946 -13.44301 -24.85729 9 38
-5.7561908 -13.481509 -25.283117 10 39
-5.7174897 -13.330551 -25.36648 10 40
-5.7398214 -13.354113 -25.778751 10 41
-5.5541496 -12.783677 -25.064398 10 42
-5.6622276 -13.050653 -25.951651 9 43
-5.4872475 -12.513071 -25.278383 9 44
-5.4304566 -12.311728 -25.25452 9 45
-5.2559977 -11.77946 -24.55637 9 46
-5.3801475 -12.087608 -25.56488 10 47
-0.91511703 0.44128567 0.22756246 9 48
-0.9150871 0.44140184 0.2275022 10 49
-0.915057 0.44151834 0.22744267 10 50
-5.3179636 -11.698079 -26.763617 11 52
-5.2765913 -11.539041 -26.835783 11 53
-5.2354355 -11.380608 -26.90921 11 54
-5.1951995 -11.224689 -26.98844 10 55
-4.9455252 -10.455324 -26.044462 10 57
-4.9593673 -10.446856 -26.467171 9 58
-4.8881111 -10.209018 -26.330091 9 59
-4.5753512 -9.3273373 -24.55294 8 60
-4.5384049 -9.1850367 -24.619381 8 61
-4.5016465 -9.0432148 -24.687256 9 62
-4.4673662 -8.9078894 -24.77276 9 63
-4.4725208 -8.8757582 -25.140114 9 64
-4.4354725 -8.7325068 -25.210781 9 65
-4.5352588 -8.9439812 -26.283657 9 66
-4.4941573 -8.7883072 -26.338526 9 67
-4.4532528 -8.6331511 -26.394754 8 68
-4.4116135 -8.4761305 -26.445333 9 69
-4.5070925 -8.6668577 -27.556076 9 70
-4.4645214 -8.5054741 -27.613943 9 71
-4.4582791 -8.4351082 -27.960768 10 72
-4.4153028 -8.2721338 -28.019573 10 73
-4.3724828 -8.1095343 -28.079741 9 74
-4.3289528 -7.945169 -28.134169 9 75
-4.1914401 -7.5514913 -27.396456 9 76
-4.1477714 -7.3884215 -27.437864 9 77
-4.1053886 -7.2284837 -27.490166 9 78
-3.9634781 -6.8310485 -26.664864 8 79
-3.9206026 -6.6717973 -26.699316 8 80
-4.0022802 -6.8050151 -27.86643 10 81
-3.946861 -6.6141706 -27.802311 9 82
-3.9026842 -6.4497542 -27.840218 9 83
-3.860189 -6.2892127 -27.893951 9 84
-3.8143258 -6.1209993 -27.91535 9 85
-3.7701399 -5.9566441 -27.952579 9 86
-3.7256253 -5.7915797 -27.986364 9 87
-3.682456 -5.6295004 -28.033648 9 88
-3.6379969 -5.4645844 -28.067808 9 89
-3.5934551 -5.2995119 -28.100939 9 90
-3.6075957 -5.2587442 -28.765448 8 91
-3.43013 -4.814219 -27.353111 9 92
-3.4927676 -4.8723407 -28.567223 10 93
-3.4477572 -4.7054148 -28.601551 9 94
-3.2987342 -4.3301592 -27.429886 9 95
-3.3340776 -4.3249059 -28.390606 10 96
-3.289232 -4.1590443 -28.421528 9 97
-3.2971156 -4.0936346 -29.101215 9 98
-3.1992865 -3.8268309 -28.48028 10 99
-3.1578298 -3.6671648 -28.554789 9 100
-3.1071348 -3.4906325 -28.510313 9 101
-2.886318 -3.0158577 -26.185419 9 102
-3.0371423 -3.192699 -28.841604 8 103
-3.0246165 -3.0799451 -29.331491 9 104
-2.9452703 -2.8555391 -28.885899 9 105
-2.932982 -2.7400827 -29.401571 10 106
-2.8860102 -2.5682538 -29.420216 9 107
-2.8389752 -2.3963449 -29.437794 9 108
-2.7912524 -2.2234712 -29.444403 10 109
-2.7331164 -2.036463 -29.281576 10 110
-2.6860516 -1.8652463 -29.293358 10 111
-2.640532 -1.6959823 -29.331339 9 112
-2.566834 -1.4934379 -28.874809 8 113
-2.5121071 -1.3156277 -28.734339 9 114
-2.4306679 -1.1116124 -28.086376 9 115
-2.3854864 -0.94764125 -28.094831 10 116
-2.3422625 -0.78537905 -28.14201 9 117
-2.3675907 -0.67582345 -29.596935 9 118
-2.2645681 -0.46570981 -28.429708 11 119
-2.219166 -0.30012363 -28.444107 12 120
-2.1734746 -0.13432278 -28.452505 13 121
-2.1605954 0.020195039 -29.235748 15 122
-2.1138628 0.19050767 -29.249653 19 123
-2.0665681 0.36098266 -29.250063 23 124
-2.0194268 0.53144568 -29.254389 27 125
-1.9721483 0.70191336 -29.255167 30 126
-1.9247463 0.87233651 -29.252399 31 127
-1.8773974 1.0427657 -29.25106 29 128
-1.8045373 1.1920246 -28.430359 28 129
-1.7519736 1.3507571 -28.208147 24 130
-1.7061247 1.5150212 -28.201302 20 131
-1.6603862 1.6794331 -28.19841 16 132
-1.5971674 1.8092575 -27.4886 11 133
-1.5525564 1.9696926 -27.486332 10 134
-1.5535178 2.258601 -29.604532 10 135
-1.5052065 2.4306254 -29.589626 9 136
-1.4569353 2.6027005 -29.576136 9 137
-1.4044743 2.755132 -29.310953 9 138
-1.3565501 2.9253347 -29.292957 9 139
-1.3086261 3.0953913 -29.273903 10 140
-1.2607623 3.2657685 -29.258749 11 141
-1.2127343 3.4345403 -29.227676 10 142
-1.1646374 3.6017087 -29.183187 10 143
-1.1180861 3.792187 -29.347923 9 144
-1.0698873 3.9614689 -29.316086 9 145
-1.0218426 4.1344833 -29.315311 9 146
-0.97229993 4.2187109 -28.632185 9 147
-0.92518115 4.3735209 -28.523699 10 148
-0.87967432 4.3645611 -27.270796 8 149
-0.83141661 4.6994205 -28.437008 9 150
-0.79213327 4.6014876 -26.701982 9 151
-0.74329895 4.8822837 -27.461458 8 152
-0.68735355 5.2697124 -28.807837 10 153
-0.6397438 5.4376454 -28.781605 9 154
-0.59216279 5.6049919 -28.751873 9 155
-0.56202871 5.5194221 -27.345259 8 156
-0.50940692 5.7753992 -27.826054 8 157
-0.49878979 5.5027819 -25.573807 7 158
-0.40481347 6.2399979 -28.461527 7 159
-0.35766596 6.4044194 -28.421923 8 160
-0.29926026 6.6835093 -28.91917 9 161
-0.25135508 6.8499498 -28.874414 9 162
-0.20450278 7.0067587 -28.787361 9 163
-0.19312708 6.8485637 -27.344288 8 164
-0.11941339 7.2488594 -28.320034 9 165
-0.07239382 7.4116254 -28.271776 8 166
-0.025203001 7.57587 -28.229757 9 167
0.012222043 7.6638665 -27.890274 9 168
0.058191128 7.8208327 -27.827419 9 169
0.10353875 7.9734392 -27.749203 9 170
0.1497404 8.1326408 -27.696474 9 171
0.22374313 8.4887295 -28.344395 9 172
0.271382 8.6539946 -28.298075 9 173
0.31857413 8.8161898 -28.241175 9 174
0.36644742 8.9830036 -28.199955 9 175
0.37945256 8.9209738 -27.411049 9 176
0.42524582 9.0778999 -27.352493 9 177
0.45217627 9.1150618 -26.918692 9 178
0.48871961 9.2159739 -26.695799 9 179
0.53440982 9.3748827 -26.654297 9 180
0.58021814 9.5344019 -26.614136 9 181
0.62521207 9.688899 -26.558853 9 182
0.71286255 10.096665 -27.22489 8 183
0.75838566 10.251299 -27.156778 8 184
0.84865838 10.665671 -27.802217 10 185
0.89534849 10.824353 -27.732969 10 186
0.94164133 10.980826 -27.658094 10 187
0.98782867 11.136789 -27.582273 10 188
1.0343952 11.294946 -27.512445 10 189
1.0815408 11.456329 -27.450878 10 190
1.0562106 11.221024 -26.407385 9 191
1.1017593 11.377024 -26.348501 9 192
1.1460148 11.526013 -26.272594 9 193
1.1912551 11.680319 -26.20949 10 194
1.2364354 11.834274 -26.145412 9 195
1.3538988 12.368423 -26.948792 10 196
1.4004275 12.526648 -26.880445 10 197
1.3938711 12.409497 -26.202866 10 198
1.4386263 12.560355 -26.127443 10 199
1.4822658 12.705511 -26.039843 10 200
1.4408735 12.418195 -25.038843 8 201
1.5056337 12.672909 -25.193604 8 202
1.5533546 12.840685 -25.163336 9 203
1.6187426 13.096499 -25.309681 9 204
1.6886051 13.373324 -25.491432 9 205
-0.90965122 0.4609679 0.22765598 11 206
1.7837334 13.703537 -25.400394 9 207
1.7905251 13.668928 -24.972351 9 208
1.9460863 14.360216 -25.919611 9 209
1.9655263 14.386885 -25.605328 9 210
2.0067489 14.519724 -25.491592 9 211
2.0577767 14.699754 -25.46377 9 212
2.1129618 14.89935 -25.46917 10 213
2.1462023 14.994118 -25.287985 8 214
2.1060967 14.741996 -24.508371 9 215
2.2341888 15.286393 -25.108534 8 216
2.2769384 15.426685 -25.008926 9 217
2.3200891 15.568892 -24.912716 2 218
2.3597956 15.695067 -24.790276 11 219
2.4031987 15.838537 -24.696629 11 220
2.408222 15.804509 -24.318966 11 221
2.5002673 16.172754 -24.58395 11 222
-0.9090836 0.46285433 0.22880621 12 223
2.5909097 16.476866 -24.420906 12 224
2.634486 16.620855 -24.326515 11 225
2.6263878 16.529989 -23.879601 10 226
2.6682074 16.666748 -23.778679 10 227
2.7098913 16.802904 -23.676912 10 228
2.7517502 16.939852 -23.576334 9 229
2.7944255 17.080462 -23.480967 10 230
2.8379459 17.224825 -23.390734 10 231
2.7263846 16.677441 -22.337378 9 232
2.7650907 16.802301 -22.231531 6 233
2.8049643 16.932362 -22.132883 9 234
2.8433774 17.055956 -22.025497 9 235
3.1201708 18.230793 -23.311165 10 236
3.1617525 18.365515 -23.201694 9 237
3.2011242 18.490545 -23.079683 9 238
3.134727 18.152906 -22.366886 9 239
3.1702192 18.262281 -22.23275 9 240
3.0829344 17.837374 -21.432968 9 241
3.3867452 19.113214 -22.745092 10 242
3.2944098 18.667698 -21.927855 9 243
3.3196592 18.732994 -21.741766 9 244
3.3985507 19.029799 -21.83256 10 245
3.4468424 19.194214 -21.763039 10 246
3.5265918 19.493422 -21.848848 10 247
-0.9082998 0.46539694 0.2308466 10 248
3.6054544 19.745079 -21.613304 10 249
-0.9082402 0.46558699 0.23102665 10 250
3.565033 19.489433 -20.816416 8 251
3.5981982 19.589729 -20.67725 8 252
3.6354594 19.707453 -20.557419 8 253
3.6697686 19.812708 -20.424305 8 254
3.5379608 19.217413 -19.552399 8 255
-0.90660316 0.43510541 0.23126952 9 0
-0.90658021 0.43520066 0.23117775 10 1
-0.90655714 0.43529645 0.23108655 9 2
-0.9065339 0.43539274 0.23099595 10 3
-0.90651041 0.43548954 0.23090595 9 4
-6.8703489 -18.040417 -21.585567 9 5
-6.917232 -18.153646 -21.989313 10 6
-6.8871236 -18.028341 -22.111525 10 7
-6.8542814 -17.894594 -22.223547 10 8
-6.2872338 -16.117447 -20.297497 8 9
-6.0900955 -15.482162 -19.754456 7 10
-6.2485299 -15.938661 -20.583076 8 11
-6.6484542 -17.131876 -22.377916 9 12
-6.6155062 -16.99826 -22.486223 9 13
-6.7062469 -17.241648 -23.091848 9 14
-6.6741085 -17.109774 -23.208666 9 15
-6.6417465 -16.977201 -23.324701 9 16
-6.6091614 -16.843939 -23.439941 9 17
-6.5744638 -16.704266 -23.546459 10 18
-6.5508423 -16.598024 -23.699894 10 19
-6.516614 -16.459703 -23.808878 10 20
-6.4821792 -16.320753 -23.917013 10 21
-0.90606129 0.43731624 0.2293911 11 22
-6.4186468 -16.058804 -24.157076 11 23
-6.3831034 -15.91648 -24.260723 11 24
-6.3109775 -15.628737 -24.463327 11 26
-5.9303679 -14.463051 -22.973522 9 27
-5.8954902 -14.325069 -23.063066 9 28
-5.8600044 -14.185305 -23.149662 10 29
-6.0451069 -14.695111 -24.288464 10 30
-5.9387407 -14.345581 -24.04451 10 31
-5.9857559 -14.446506 -24.540985 10 32
-5.9372683 -14.267074 -24.575567 10 33
-5.8284554 -13.911963 -24.30817 10 34
-5.8014822 -13.795905 -24.445234 10 35
-5.7059789 -13.48098 -24.234119 10 36
-5.6697555 -13.338414 -24.321751 10 37
-5.6333604 -13.195353 -24.408503 10 38
-5.5996594 -13.060036 -24.509457 10 39
-5.6197152 -13.078823 -24.89728 10 40
-5.5827451 -12.933609 -24.984613 10 41
-5.5467982 -12.791303 -25.077585 9 42
-5.4591646 -12.502073 -24.885715 9 43
-5.5316839 -12.667472 -25.580952 9 44
-5.4939065 -12.51939 -25.667988 10 45
-5.4567227 -12.372965 -25.75853 10 46
-5.4178176 -12.221679 -25.839342 10 47
-5.3791299 -12.070999 -25.921438 10 48
-5.3959751 -12.075081 -26.332045 10 49
-5.2747693 -11.694667 -25.924339 10 50
-5.2358212 -11.543498 -26.003183 10 51
-5.2179561 -11.450451 -26.21134 8 52
-5.195909 -11.345469 -26.396782 10 53
-4.9533491 -10.636697 -25.199883 8 54
-5.1151009 -11.034295 -26.542471 9 55
-5.0750027 -10.879542 -26.61727 9 56
-4.8705945 -10.280528 -25.621128 9 57
-4.7356658 -9.8722897 -25.056669 8 58
-4.72405 -9.7968473 -25.300409 8 59
-4.7531013 -9.829318 -25.824038 8 60
-4.9238462 -10.236638 -27.331116 10 61
-4.888598 -10.093991 -27.444832 10 62
-4.8451848 -9.9296827 -27.50231 10 63
-4.8036079 -9.770216 -27.572647 10 64
-4.7609124 -9.6078167 -27.635046 10 65
-4.7174501 -9.4434347 -27.691774 10 66
-4.645587 -9.2058258 -27.537542 10 67
-4.603147 -9.0445099 -27.598749 9 68
-4.5599608 -8.8812885 -27.654274 9 69
-4.2109761 -7.9425311 -25.344648 9 70
-4.1717777 -7.7939868 -25.397909 9 71
-4.3929567 -8.2978783 -27.522388 8 72
-4.0918589 -7.4931006 -25.492222 9 73
-4.3015394 -7.9602404 -27.582819 8 74
-3.9062026 -6.9324536 -24.707764 8 75
-4.212193 -7.6280479 -27.657875 8 76
-4.168664 -7.4648142 -27.704521 8 77
-4.1264048 -7.3046532 -27.762074 9 78
-4.1620026 -7.3302612 -28.506561 10 79
-4.1170712 -7.162231 -28.551371 10 80
-4.0730929 -6.9964566 -28.604717 10 81
-3.9827552 -6.7227297 -28.229717 10 82
-3.9389267 -6.5582032 -28.277929 9 83
-3.8942246 -6.3916664 -28.317898 9 84
-3.6637657 -5.8044991 -26.555037 8 85
-3.6231458 -5.6513267 -26.604727 8 86
-3.6954508 -5.7486691 -27.788065 9 87
-3.6516266 -5.58566 -27.825378 9 88
-3.6077108 -5.4224615 -27.861677 9 89
-3.5604894 -5.2521825 -27.862951 9 90
-3.5169013 -5.0897794 -27.902035 9 91
-3.4723227 -4.9252906 -27.930374 9 92
-3.4283299 -4.7620449 -27.964996 9 93
-3.3790972 -4.58814 -27.940018 9 94
-3.3676796 -4.4903054 -28.351391 9 95
-3.3231251 -4.325069 -28.385775 9 96
-3.2736025 -4.1501808 -28.360352 8 97
-3.2291517 -3.9852712 -28.395081 9 98
-3.1830392 -3.8172221 -28.409157 9 99
-3.1684935 -3.7071493 -28.827564 9 100
-3.1246767 -3.5421863 -28.879251 10 101
-3.0762918 -3.3690484 -28.870861 9 102
-2.9964497 -3.142174 -28.43025 9 103
-2.9502149 -2.9744155 -28.439022 9 104
-2.9234071 -2.8383484 -28.725563 9 105
-2.8766801 -2.6690788 -28.732439 9 106
-2.8309152 -2.5013773 -28.753077 9 107
-2.7849205 -2.3333328 -28.770199 9 108
-2.7452843 -2.1743538 -28.887724 9 109
-2.7000797 -2.0070455 -28.920151 9 110
-2.6271031 -1.8033528 -28.490782 8 111
-2.5824075 -1.6381959 -28.520901 8 112
-2.4499953 -1.3698184 -27.007586 8 113
-2.40644 -1.2118843 -27.015112 9 114
-2.3621817 -1.0532635 -27.009249 9 115
-2.3357313 -0.91169608 -27.345032 10 116
-2.2936862 -0.75377297 -27.391943 10 117
-2.2488081 -0.59331256 -27.383226 11 118
-2.1871846 -0.42165738 -27.018122 11 119
-2.1433418 -0.26384458 -27.01726 11 120
-2.2136109 -0.15906708 -29.613668 13 121
-2.1657867 0.013563846 -29.616257 16 122
-2.1169126 0.18640102 -29.592905 19 123
-2.0688608 0.35887092 -29.588373 22 124
-2.0182717 0.53107429 -29.515604 28 125
-1.9706506 0.70306867 -29.518877 32 126
-1.9226418 0.87494051 -29.511131 35 127
-1.8748641 1.0468606 -29.509777 34 128
-1.8272836 1.2189521 -29.514818 32 129
-1.7793525 1.3907875 -29.508841 26 130
-1.7335473 1.5654439 -29.57888 20 131
-1.6719241 1.7153671 -29.056129 16 132
-1.6245103 1.8842262 -29.042078 14 133
-1.5772091 2.05322 -29.031948 11 134
-1.5191785 2.191891 -28.521452 10 135
-1.4726534 2.3578231 -28.50939 10 136
-1.4301902 2.539778 -28.719713 9 137
-1.3958632 2.7657986 -29.462328 9 138
-1.3441064 2.9169261 -29.206152 9 139
-1.2964767 3.0875883 -29.199535 9 140
-1.2487501 3.2577691 -29.186897 9 141
-1.1935761 3.3539257 -28.442631 9 142
-1.147018 3.5200055 -28.430777 9 143
-1.1003494 3.6846356 -28.405519 8 144
-1.0437893 3.6271596 -26.510504 8 145
-1.0002532 3.7824466 -26.499329 8 146
-0.95978981 4.1351056 -28.000282 8 147
-0.91422331 4.4587741 -29.157572 9 148
-0.86765718 4.4622326 -27.965769 8 149
-0.81903458 4.757328 -28.835911 9 150
-0.77197599 4.9087458 -28.704613 9 151
-0.72457504 5.0768652 -28.68553 9 152
-0.6773091 5.2416453 -28.645754 8 153
-0.62999892 5.4077973 -28.614771 8 154
-0.58251667 5.5767922 -28.599915 8 155
-0.53537142 5.7403769 -28.554615 8 156
-0.4879711 5.9077754 -28.530321 9 157
-0.44067907 6.0736294 -28.49765 9 158
-0.39327395 6.240757 -28.471266 9 159
-0.34595749 6.4067492 -28.438959 9 160
-0.29890922 6.5699553 -28.393448 9 161
-0.25882122 6.6660681 -28.043098 8 162
-0.2122055 6.8284984 -28.003263 9 163
-0.16555937 6.9912338 -27.964849 9 164
-0.11880508 7.1548862 -27.930262 9 165
-0.071920365 7.3195338 -27.899483 9 166
-0.02540978 7.4810271 -27.855597 9 167
0.044448677 7.8244915 -28.521685 9 168
0.092223845 7.9907756 -28.479507 10 169
0.13717864 8.1361589 -28.359411 11 170
0.1848603 8.3021679 -28.317682 11 171
0.23270932 8.4692955 -28.279699 11 172
0.27886251 8.624568 -28.200024 10 173
0.32600528 8.7868967 -28.145681 10 174
0.3735165 8.9517288 -28.099865 10 175
0.42055342 9.1133976 -28.043503 10 176
0.46695149 9.2709923 -27.974274 9 177
0.51395905 9.4326105 -27.91831 9 178
0.55980062 9.586957 -27.840063 9 179
0.5619517 9.472229 -26.951559 9 180
0.60748303 9.6286783 -26.896667 9 181
0.65228587 9.7807484 -26.829054 9 182
0.69754881 9.9356422 -26.769896 9 183
0.74303174 10.091841 -26.714457 9 184
0.78817046 10.246021 -26.65337 9 185
0.83354169 10.401549 -26.595987 10 186
0.8777765 10.550607 -26.521357 9 187
0.92253453 10.702703 -26.455107 9 188
1.0493668 11.311705 -27.558661 10 189
1.0124701 11.009295 -26.329033 9 190
1.1434377 11.632791 -27.429676 7 191
1.191072 11.79655 -27.372866 8 192
1.2310185 11.918891 -27.216484 11 193
1.2845931 12.114505 -27.235525 11 194
1.3231654 12.230112 -27.066214 11 195
1.3698548 12.388997 -26.998735 11 196
1.415511 12.542459 -26.918919 11 197
1.4590884 12.685187 -26.815552 11 198
1.5052965 12.841632 -26.742943 11 199
-0.90006733 0.45919412 0.22731602 12 200
1.4254485 12.278909 -24.747297 9 201
1.409591 12.127056 -24.060081 9 202
1.5129538 12.577413 -24.626064 9 203
1.5560895 12.723477 -24.558441 9 204
1.5917678 12.832471 -24.416775 9 205
1.6612985 13.109014 -24.605947 8 206
1.6976035 13.220902 -24.468904 8 207
1.859762 13.948249 -25.507832 8 208
1.8470348 13.819215 -24.904346 8 209
1.9077111 14.048126 -24.979364 9 210
1.8494595 13.703352 -24.000454 8 211
1.7377006 13.106513 -22.59123 7 212
1.7770294 13.237479 -22.513565 8 213
1.8165196 13.369211 -22.437233 8 214
1.8551352 13.496791 -22.353642 8 215
1.8952283 13.631352 -22.282084 8 216
1.9185771 13.687285 -22.077684 8 217
2.3017855 15.426026 -24.677197 10 218
2.3424706 15.557283 -24.566191 10 219
2.4087286 15.807252 -24.648108 12 220
2.2216535 14.885616 -22.850836 9 221
2.4967465 16.099905 -24.471033 10 222
-0.8992939 0.46177238 0.2288236 10 223
-0.8992613 0.46187964 0.22889744 10 224
2.6259313 16.525688 -24.183956 10 225
2.6691532 16.668325 -24.089224 9 226
2.7128723 16.813194 -23.997681 9 227
2.7540193 16.946419 -23.888884 9 228
2.7896943 17.055063 -23.744766 9 229
2.7312329 16.741755 -22.999613 8 230
2.7723205 16.876221 -22.901386 9 231
2.8152211 17.018761 -22.814341 9 232
2.8560781 17.152157 -22.714367 9 233
2.9618416 17.573196 -23.004936 10 234
3.0027969 17.706198 -22.89953 10 235
3.044961 17.844524 -22.801167 3 236
3.1013153 18.045189 -22.784204 10 237
3.1248167 18.101469 -22.578342 10 238
3.1655502 18.233484 -22.471577 11 239
3.2068465 18.367943 -22.36784 10 240
3.2501416 18.511074 -22.274767 9 241
-0.89869177 0.46373242 0.23033835 11 242
3.4267619 19.186823 -22.56147 10 243
3.4509497 19.246294 -22.360811 10 244
-0.89860034 0.464026 0.23059843 10 245
3.5306182 19.500719 -22.124594 9 246
3.5709541 19.630089 -22.009037 9 247
3.6062214 19.737766 -21.868553 9 248
3.6488736 19.877052 -21.764402 9 249
3.4583452 19.023008 -20.547724 8 250
3.6523864 19.807795 -21.170172 9 251
3.6877549 19.916744 -21.036289 9 252
3.7276394 20.044865 -20.92345 9 253
3.7610207 20.145487 -20.781073 9 254
3.7989676 20.265434 -20.659584 8 255
-6.9964404 -18.603251 -20.921495 9 0
-6.9022284 -18.278833 -20.81522 9 1
-0.8963024 0.43433514 0.23123316 9 2
-6.8430605 -18.03339 -21.050909 8 3
-6.8123846 -17.907274 -21.16485 8 4
-6.7840457 -17.788397 -21.287298 8 5
-6.75598 -17.670341 -21.410925 8 6
-6.7271738 -17.549973 -21.53199 9 7
-6.698638 -17.430414 -21.654242 9 8
-6.666379 -17.299385 -21.762512 9 9
-6.6349154 -17.170805 -21.873772 9 10
-6.3017273 -16.118265 -20.810602 8 11
-6.2705545 -15.992282 -20.910627 8 12
-6.2421227 -15.87467 -21.021471 8 13
-6.6644297 -17.129555 -22.943235 10 14
-6.6305528 -16.992699 -23.051535 10 15
-6.5428562 -16.692598 -22.938976 10 16
-6.5293622 -16.617775 -23.1294 10 17
-6.5272541 -16.577106 -23.369308 10 18
-6.1794391 -15.493748 -22.147869 9 19
-0.89585865 0.43614429 0.22969586 12 20
-6.3409328 -15.912282 -23.327633 9 21
-6.3075824 -15.777534 -23.434376 9 22
-6.2712736 -15.633929 -23.528141 9 23
-6.2375288 -15.497994 -23.633198 9 24
-6.2017698 -15.356053 -23.729256 10 25
-6.1667318 -15.216262 -23.828524 10 26
-6.1315041 -15.075909 -23.926926 10 27
-6.1542015 -15.106774 -24.295483 10 28
-6.1054244 -14.926053 -24.332989 11 29
-6.0894513 -14.842015 -24.525536 10 30
-6.0243502 -14.613516 -24.483479 10 31
-6.0133934 -14.543929 -24.702145 8 32
-5.9671974 -14.37107 -24.750004 10 33
-5.8712111 -14.053346 -24.548903 10 34
-5.9219389 -14.162683 -25.079983 10 35
-5.8823819 -14.009114 -25.161226 10 36
-5.8430934 -13.856353 -25.243626 10 37
-5.8061275 -13.710307 -25.337933 10 38
-5.7661071 -13.55547 -25.416264 10 39
-5.7312231 -13.415383 -25.521715 10 40
-5.6916823 -13.261937 -25.602489 10 41
-5.6827669 -13.195727 -25.849947 10 42
-5.6438608 -13.043856 -25.935881 10 43
-5.6315231 -12.967181 -26.169903 11 44
-5.5678782 -12.745263 -26.118116 11 45
-5.5040851 -12.523367 -26.062313 11 46
-0.8951031 0.43912673 0.22778711 11 47
-5.3392482 -11.976858 -25.723356 10 48
-5.4114108 -12.135222 -26.458342 10 49
-5.3705535 -11.977847 -26.533247 10 50
-5.330658 -11.823145 -26.61388 10 51
-5.2909636 -11.668986 -26.695807 10 52
-5.2525506 -11.51833 -26.785799 10 53
-5.212501 -11.36315 -26.865866 10 54
-5.1722822 -11.207493 -26.944981 10 55
-5.1311908 -11.049452 -27.018606 10 56
-5.0833044 -10.873056 -27.047997 10 57
-4.9270539 -10.405337 -26.361755 9 58
-4.8432026 -10.134171 -26.139744 9 59
-4.8014741 -9.9763432 -26.19519 9 60
-4.7616544 -9.8236217 -26.26343 9 61
-4.722353 -9.6722603 -26.33534 9 62
-4.6815786 -9.5169992 -26.397087 9 63
-4.6780744 -9.4592695 -26.724272 9 64
-4.67556 -9.4031458 -27.065659 9 65
-4.6392932 -9.2585592 -27.167639 9 66
-4.5974231 -9.0993853 -27.229158 9 67
-4.5240073 -8.8593712 -27.053593 9 68
-4.4825416 -8.7016716 -27.114971 10 69
-4.4403315 -8.5420761 -27.170681 10 70
-4.3805871 -8.3383245 -27.088949 9 71
-4.4157715 -8.3727427 -27.757662 10 72
-4.3727641 -8.2102308 -27.813702 10 73
-4.3371553 -8.0660009 -27.930271 11 74
-4.293519 -7.9018145 -27.982042 10 75
-4.2486391 -7.7346044 -28.023291 10 76
-4.2014475 -7.5618463 -28.044436 10 77
-4.157805 -7.3977413 -28.095451 10 78
-4.1145873 -7.2346468 -28.150227 10 79
-4.0650887 -7.0566754 -28.148966 9 80
-4.0670519 -6.9996314 -28.613878 10 81
-4.0223742 -6.8322806 -28.661425 10 82
-3.9768155 -6.6628962 -28.700718 10 83
-3.9311683 -6.49334 -28.738949 10 84
-3.7973599 -6.1243801 -27.922262 8 85
-3.7536027 -5.9610949 -27.964338 9 86
-3.7095013 -5.7970448 -28.002981 9 87
-3.665781 -5.6338396 -28.04545 9 88
-3.6867049 -5.6107659 -28.758884 9 89
-3.5826204 -5.3165507 -28.17594 9 90
